ncols         140
nrows         56
xllcorner     776985.03882
yllcorner     2642896.05334
cellsize      250.00000   
NODATA_value  -9999.00000 
228.00      206.00      162.00      144.02      144.01      146.00      142.00      140.03      140.02      140.01      148.00      141.00      155.00      155.00      129.00      151.00      138.01      161.00      150.00      148.00      141.00      163.00      135.00      129.00      139.00      135.00      147.00      147.00      182.00      226.00      256.00      194.00      178.00      169.00      192.00      147.01      163.00      193.00      165.00      139.02      139.02      145.00      165.00      176.00      250.00      207.00      176.00      184.00      211.00      211.00      249.00      216.00      205.00      216.00      220.00      238.00      257.00      261.00      296.00      296.00      280.00      302.00      350.00      361.00      392.00      376.00      429.00      321.00      278.02      301.00      352.00      368.00      374.00      314.00      258.00      279.00      263.00      223.01      223.00      216.00      202.02      204.00      227.00      237.00      236.00      258.00      235.00      225.01      233.00      256.00      233.00      266.00      298.00      312.00      312.00      321.00      379.00      412.00      443.00      471.00      500.00      520.00      565.00      683.00      732.00      782.00      878.00      858.00      927.00      948.00      855.00      804.00      745.00      696.00      660.00      628.00      570.00      548.00      546.00      528.08      528.08      536.00      535.00      528.08      528.08      528.08      528.08      551.00      564.00      580.00      568.00      579.00      600.00      616.00      624.00      577.00      527.00      566.00      603.00      572.00
223.00      208.00      159.00      144.02      149.00      144.00      158.00      156.00      146.00      140.02      154.00      143.00      162.00      135.00      142.00      167.00      147.00      157.00      171.00      150.00      149.00      180.00      166.00      143.00      134.00      159.00      157.00      173.00      216.00      240.00      206.00      177.01      180.00      165.00      157.00      170.00      187.00      211.00      230.00      159.00      143.00      165.00      151.00      218.00      235.00      171.02      171.02      171.03      187.00      179.00      187.00      213.00      193.00      193.01      214.00      243.00      200.00      213.00      259.00      266.00      289.00      317.00      334.00      399.00      423.00      385.00      419.00      322.00      281.00      293.00      388.00      343.00      308.00      289.00      269.00      254.01      254.00      252.00      247.00      243.00      202.03      203.00      217.00      232.00      245.00      247.00      256.00      230.00      229.00      230.00      259.00      260.00      259.01      269.00      290.00      350.00      391.00      400.00      404.00      479.00      543.00      574.00      623.00      669.00      752.00      827.00      910.00      990.00      948.00      859.00      793.00      780.00      757.00      690.00      633.00      598.00      596.00      569.00      544.00      531.00      528.07      528.07      552.00      528.07      528.07      528.07      561.00      531.00      536.00      577.00      586.00      624.00      637.00      648.00      639.00      597.00      551.00      585.00      605.00      561.00
200.00      172.00      144.03      156.00      168.00      171.00      158.00      152.00      165.00      149.00      160.00      175.00      151.00      140.00      168.00      167.00      174.00      152.00      174.00      152.00      149.01      164.00      165.00      159.00      135.00      150.00      147.00      163.00      192.00      205.00      197.00      212.00      177.00      196.00      171.00      171.00      214.00      225.00      180.00      144.00      143.01      162.00      195.00      281.00      208.00      171.01      230.00      193.00      171.04      171.05      197.00      186.00      206.00      217.00      219.00      210.00      196.00      211.00      248.00      229.00      241.00      267.00      324.00      409.00      458.00      428.00      466.00      368.00      311.00      312.00      325.00      261.01      261.00      299.00      264.00      275.00      255.00      230.00      249.00      209.00      202.04      202.04      203.00      210.00      225.00      248.00      244.00      264.00      261.00      270.00      247.00      259.00      279.00      285.00      321.00      345.00      334.00      380.00      398.00      447.00      530.00      597.00      656.00      759.00      794.00      806.00      875.00      923.00      864.00      811.00      780.00      798.00      698.00      669.00      616.00      583.00      568.00      570.00      529.00      537.00      528.06      528.06      528.06      528.06      528.06      528.06      574.00      550.00      580.00      603.00      618.00      615.00      646.00      637.01      664.00      649.00      605.00      615.00      629.00      586.00
194.00      189.00      164.00      156.00      177.00      179.00      172.00      163.00      170.00      151.00      161.00      161.00      143.00      144.00      169.00      165.02      175.00      173.00      166.00      163.00      171.00      163.00      163.00      142.00      150.00      142.00      156.00      175.00      187.00      218.00      235.00      231.00      195.00      183.00      186.00      212.00      213.00      203.00      163.00      143.02      147.00      216.00      254.00      233.00      171.00      187.00      197.00      179.00      209.00      219.00      182.00      212.00      214.00      205.00      188.00      188.01      205.00      229.00      222.00      213.00      278.00      314.00      338.00      384.00      408.00      470.00      467.00      374.00      351.00      316.00      263.00      266.00      276.00      250.02      250.01      259.00      247.00      256.00      227.00      203.00      220.00      203.00      215.00      247.00      210.01      216.00      251.00      248.00      263.00      267.00      273.00      264.00      260.00      283.00      309.00      316.00      350.00      416.00      487.00      520.00      512.00      558.00      666.00      768.00      864.00      876.00      951.00      904.00      820.00      806.00      771.00      784.00      720.00      632.00      631.00      625.00      574.00      548.00      531.00      528.07      539.00      528.05      529.00      528.05      528.05      535.00      564.00      549.01      583.00      592.00      625.00      652.00      668.00      690.00      695.00      707.00      686.00      643.00      564.00      589.00
207.00      186.00      172.00      171.00      188.00      191.00      170.00      163.01      163.00      160.00      160.00      158.00      196.00      153.00      177.00      165.01      184.00      188.00      179.00      168.00      196.00      163.01      174.00      161.00      155.00      166.00      160.00      172.00      190.00      215.00      277.00      261.00      207.00      210.00      206.00      225.00      203.01      208.00      180.00      145.00      152.00      189.00      192.00      160.00      162.00      169.00      169.01      177.00      196.00      207.00      182.01      182.01      186.00      182.03      218.00      214.00      239.00      203.00      204.00      210.00      257.00      321.00      340.00      363.00      363.01      396.00      467.00      382.00      342.00      328.00      310.00      311.00      277.00      251.00      260.00      250.00      228.00      249.00      227.00      225.00      254.00      204.00      216.00      235.00      240.00      215.00      235.00      262.00      296.00      303.00      319.00      325.00      294.00      320.00      380.00      399.00      381.00      428.00      456.00      501.00      585.00      625.00      672.00      798.00      863.00      900.00      941.00      868.00      786.00      739.00      711.00      730.00      678.00      640.00      631.00      599.00      575.00      555.00      528.07      528.06      529.00      528.04      528.04      528.04      528.04      528.04      549.00      601.00      619.00      617.00      677.00      724.00      734.00      777.00      722.00      723.00      684.00      564.00      540.00      567.00
188.00      181.00      203.00      187.00      210.00      206.00      184.00      188.00      168.00      160.01      177.00      195.00      167.00      196.00      165.00      182.00      182.00      204.00      184.00      188.00      179.00      195.00      175.00      164.00      169.00      163.00      187.00      192.00      226.00      271.00      352.00      291.00      249.00      212.00      254.00      240.00      229.00      252.00      185.00      145.01      150.00      149.00      149.01      149.02      150.00      177.00      183.00      174.00      197.00      195.00      189.00      191.00      182.02      182.03      182.04      182.05      184.00      212.00      228.00      260.00      306.00      293.00      307.00      364.00      379.00      415.00      448.00      403.00      384.00      342.00      362.00      349.00      276.00      241.01      247.00      235.00      232.00      225.02      225.01      251.00      220.00      204.01      225.00      238.00      239.00      253.00      234.00      234.01      253.00      267.00      347.00      399.00      411.00      399.00      435.00      473.00      443.00      436.00      488.00      574.00      609.00      699.00      782.00      886.00      798.00      811.00      829.00      823.00      792.00      760.00      688.00      665.00      632.00      641.00      645.00      645.00      593.00      555.00      540.00      528.06      528.05      528.04      528.03      528.03      528.03      541.00      551.00      617.00      674.00      691.00      700.00      738.00      785.00      824.00      711.00      634.00      614.00      505.00      534.00      495.00
195.00      203.00      224.00      217.00      234.00      231.00      209.00      180.00      167.00      196.00      206.00      167.01      205.00      246.00      190.00      176.00      211.00      233.00      192.00      201.00      192.00      184.00      185.00      164.01      184.00      186.00      183.00      216.00      260.00      322.00      363.00      301.00      273.00      249.00      273.00      314.00      219.00      187.00      154.00      145.02      145.02      156.00      181.00      169.00      149.03      166.00      177.00      198.00      205.00      220.00      204.00      225.00      204.00      210.00      199.00      211.00      228.00      271.00      252.00      266.00      275.00      329.00      347.00      382.00      327.00      345.00      409.00      455.00      438.00      423.00      379.00      363.00      290.00      261.00      241.00      262.00      230.00      267.00      234.00      236.00      204.02      217.00      234.00      251.00      265.00      270.00      264.00      257.00      234.02      265.00      318.00      391.00      455.00      509.00      524.00      545.00      493.00      484.00      549.00      597.00      659.00      781.00      863.00      867.00      756.00      729.00      732.00      772.00      765.00      737.00      710.00      633.00      586.00      585.01      585.00      576.00      579.00      558.00      568.00      528.06      528.05      528.04      528.03      528.02      528.02      533.00      581.00      618.00      664.00      699.00      732.00      757.00      769.00      736.00      683.00      568.00      509.00      472.05      478.00      516.00
209.00      215.00      222.00      258.00      248.00      228.00      202.00      193.00      183.00      202.00      190.00      182.00      241.00      252.00      232.00      189.00      232.00      245.00      216.00      199.00      208.00      194.00      171.00      189.00      193.00      192.00      200.00      260.00      286.00      302.00      316.00      273.01      277.00      322.00      257.00      237.00      198.00      159.00      146.00      153.00      145.03      149.00      190.00      178.00      154.00      177.00      195.00      195.00      172.01      213.00      238.00      224.00      230.00      201.00      218.00      236.00      236.00      283.00      296.00      311.00      300.00      321.00      373.00      365.00      291.00      337.00      416.00      392.00      371.00      376.00      342.00      301.00      310.00      272.00      258.00      251.00      235.00      256.00      261.00      218.00      207.00      212.00      229.00      254.00      301.00      283.00      257.01      280.00      255.00      249.00      310.00      375.00      421.00      482.00      536.00      622.00      560.00      580.00      606.00      671.00      727.00      794.00      851.00      784.00      715.00      688.00      679.00      718.00      704.00      688.00      627.00      611.00      633.00      637.00      620.00      585.00      558.01      558.00      539.00      531.00      537.00      528.04      528.03      528.02      528.01      528.01      582.00      642.00      619.00      630.00      681.00      745.00      737.00      688.00      629.00      572.00      492.00      472.04      515.00      544.00
233.00      252.00      251.00      237.00      211.00      204.00      193.01      199.00      200.00      201.00      212.00      182.01      214.00      251.00      245.00      215.00      241.00      226.00      251.00      255.00      237.00      200.00      184.00      219.00      217.00      202.00      218.00      262.00      319.00      359.00      340.00      313.00      342.00      315.00      274.00      225.00      168.00      150.00      183.00      160.00      146.00      148.00      188.00      172.00      160.00      154.01      158.00      172.00      178.00      215.00      225.00      188.00      192.00      200.00      236.00      219.00      209.00      223.00      247.00      251.00      245.00      257.00      287.00      287.00      287.01      298.00      367.00      375.00      320.00      322.00      324.00      284.00      247.00      243.01      243.00      236.00      275.00      268.00      228.00      239.00      209.00      220.00      212.01      233.00      268.00      270.00      276.00      258.00      282.00      256.00      284.00      320.00      389.00      440.00      533.00      591.00      655.00      650.00      632.00      654.00      720.00      774.00      807.00      731.00      694.00      683.00      645.00      658.00      640.00      636.00      655.00      709.00      709.00      668.00      636.00      611.00      632.00      579.00      585.00      554.00      559.00      532.00      541.00      551.00      532.00      528.00      591.00      601.00      562.00      610.00      677.00      650.00      687.00      652.00      573.00      487.00      472.03      523.00      584.00      485.00
232.00      257.00      232.00      227.00      204.01      208.00      205.00      210.00      205.00      208.00      227.00      226.00      276.00      268.00      241.00      230.00      259.00      249.00      305.00      298.00      263.00      242.00      190.00      240.00      258.00      229.00      281.00      269.00      262.01      299.00      398.00      390.00      368.00      276.00      224.00      197.00      154.00      158.00      165.00      160.00      148.00      151.00      196.00      175.00      176.00      174.00      163.00      158.01      166.00      184.00      224.00      195.00      183.00      203.00      205.00      203.02      225.00      209.00      235.00      219.00      227.00      227.01      269.00      301.00      305.00      347.00      414.00      364.00      315.00      357.00      368.00      289.00      272.00      294.00      258.00      247.00      245.00      240.00      249.00      217.00      209.01      236.00      235.00      216.00      225.00      247.00      289.00      296.00      309.00      283.00      292.00      324.00      383.00      452.00      492.00      574.00      676.00      683.00      652.00      680.00      695.00      767.00      808.00      723.00      684.00      652.00      636.03      636.02      636.01      639.00      713.00      790.00      765.00      743.00      717.00      723.00      654.00      612.00      600.00      598.00      586.00      581.00      554.00      574.00      553.00      519.00      543.00      560.00      524.00      582.00      589.00      551.00      555.00      543.00      493.00      472.02      518.00      576.00      507.00      440.00
242.00      260.00      232.00      218.00      255.00      274.00      246.00      212.00      224.00      230.00      281.00      337.00      288.00      293.00      255.00      274.00      278.00      286.00      389.00      411.00      315.00      285.00      196.00      242.00      303.00      286.00      354.00      376.00      304.00      353.00      430.00      429.00      326.00      281.00      217.00      177.00      154.01      182.00      192.00      157.00      151.00      155.00      166.00      166.01      189.00      168.00      192.00      190.00      208.00      170.00      182.00      172.00      208.00      205.00      203.01      203.02      203.03      204.00      204.01      232.00      253.00      271.00      266.00      311.00      328.00      365.00      388.00      371.00      299.00      278.00      306.00      275.00      288.00      288.00      248.00      246.00      236.00      221.01      221.00      211.00      218.00      233.00      263.00      243.00      221.00      245.00      284.00      298.00      254.00      297.00      308.00      335.00      346.00      403.00      496.00      607.00      733.00      737.00      740.00      738.00      705.00      751.00      774.00      686.00      655.00      659.00      705.00      687.00      665.00      685.00      689.00      780.00      808.00      790.00      768.00      693.00      644.00      631.00      629.00      620.00      639.00      619.00      579.00      576.00      550.00      500.01      500.00      519.00      485.00      482.00      476.00      473.01      473.00      523.00      472.02      472.01      498.00      497.00      428.00      407.00
225.00      234.00      233.00      270.00      320.00      289.00      243.00      246.00      263.00      253.00      290.00      346.00      339.00      333.00      296.00      366.00      382.00      325.00      468.00      441.00      367.00      284.00      222.00      260.00      328.00      391.00      417.00      335.00      349.00      388.00      418.00      374.00      273.00      208.00      194.00      167.00      159.00      198.00      207.00      162.00      151.01      167.00      177.00      185.00      176.00      190.00      219.00      223.00      201.00      207.00      170.01      179.00      189.00      243.00      218.00      208.00      223.00      245.00      242.00      277.00      286.00      260.00      260.01      314.00      342.00      368.00      351.00      392.00      337.00      324.00      272.00      297.00      286.00      264.00      244.00      227.00      221.02      221.01      251.00      250.00      247.00      259.00      249.00      277.00      274.00      233.00      233.01      239.00      251.00      291.00      371.00      403.00      402.00      419.00      475.00      588.00      702.00      776.00      732.00      707.00      679.00      674.00      674.00      655.01      663.00      713.00      777.00      737.00      731.00      751.00      796.00      813.00      802.00      786.00      787.00      735.00      715.00      657.00      637.00      645.00      643.00      636.00      594.00      548.00      570.00      507.00      503.00      491.00      492.00      558.00      556.00      541.00      494.00      472.03      472.02      477.00      472.00      462.00      460.00      449.00
211.00      200.00      226.00      255.00      331.00      298.00      304.00      280.00      293.00      276.00      297.00      350.00      414.00      406.00      372.00      457.00      364.00      391.00      511.00      463.00      380.00      363.00      271.00      294.00      390.00      484.00      421.00      384.00      418.00      440.00      341.00      290.00      236.00      249.00      185.00      182.00      162.00      186.00      183.00      164.00      152.00      164.00      188.00      199.00      254.00      237.00      283.00      281.00      213.00      230.00      183.00      175.00      187.00      202.00      228.00      237.00      230.00      227.00      270.00      294.00      334.00      350.00      279.00      302.00      309.00      347.00      378.00      357.00      345.00      302.00      294.00      253.00      278.00      231.00      227.01      227.00      257.00      230.00      247.00      247.01      254.00      251.00      295.00      264.00      307.00      254.00      238.00      269.00      282.00      345.00      390.00      442.00      492.00      485.00      486.00      591.00      714.00      780.00      756.00      758.00      748.00      721.00      655.02      663.00      686.00      741.00      824.00      790.00      797.00      816.00      784.00      762.00      782.00      783.00      725.00      692.00      628.00      596.00      613.00      630.00      600.00      587.00      536.00      509.00      555.00      512.00      500.00      491.01      491.01      531.00      576.00      596.00      586.00      492.00      472.03      558.00      520.00      486.00      474.00      476.00
180.00      220.00      255.00      297.00      351.00      353.00      359.00      319.00      302.00      304.00      341.00      443.00      520.00      508.00      452.00      478.00      442.00      516.00      556.00      474.00      422.00      438.00      323.00      316.00      409.00      504.00      460.00      465.00      444.00      379.00      328.00      256.00      219.00      212.00      173.00      170.00      206.00      181.00      182.00      177.00      170.00      178.00      239.00      279.00      312.00      262.00      310.00      308.00      226.00      227.00      198.00      210.00      195.00      187.01      187.02      192.00      205.00      251.00      263.00      269.00      323.00      358.00      341.00      298.00      352.00      383.00      321.00      312.00      310.00      306.00      281.00      266.00      230.00      228.00      262.00      282.00      260.00      231.00      257.00      257.00      281.00      278.00      307.00      294.00      284.00      302.00      303.00      271.00      319.00      346.00      391.00      487.00      559.00      562.00      554.00      633.00      734.00      817.00      772.00      777.00      750.00      692.00      692.00      726.00      771.00      813.00      798.00      771.00      755.00      763.00      731.00      695.00      776.00      721.00      653.00      639.00      565.00      549.01      566.00      592.00      557.00      543.00      544.00      506.00      519.00      505.00      491.02      491.02      512.00      580.00      650.00      642.00      597.00      472.04      514.00      570.00      548.00      527.00      527.00      533.00
176.00      195.00      241.00      308.00      343.00      403.00      339.00      332.00      352.00      374.00      415.00      452.00      576.00      546.00      525.00      490.00      524.00      560.00      495.00      429.00      421.00      376.00      345.00      331.00      457.00      457.00      430.00      475.00      453.00      413.00      350.00      244.00      213.00      185.00      175.00      207.00      208.00      191.00      179.00      199.00      215.00      180.00      237.00      313.00      321.00      303.00      339.00      287.00      261.00      250.00      237.00      195.01      203.00      200.00      210.00      217.00      204.00      205.00      228.00      241.00      278.00      320.00      354.00      298.01      331.00      363.00      305.00      293.00      299.00      291.00      256.00      256.00      236.00      284.00      289.00      322.00      296.00      240.00      259.00      302.00      327.00      321.00      323.00      291.00      317.00      378.00      325.00      285.00      304.00      388.00      413.00      470.00      572.00      619.00      624.00      696.00      821.00      847.00      786.00      797.00      749.00      724.00      737.00      813.00      845.00      817.00      736.00      715.00      721.00      672.00      647.00      671.00      746.00      708.00      622.00      599.00      549.00      549.00      556.00      561.00      527.00      515.00      508.00      502.00      491.04      491.03      511.00      496.00      553.00      609.00      582.00      573.00      521.00      543.00      586.00      600.00      608.00      609.00      566.00      557.00
227.00      234.00      276.00      330.00      366.00      374.00      349.00      388.00      453.00      477.00      535.00      610.00      682.00      681.00      586.00      568.00      569.00      528.00      456.00      477.00      461.00      450.00      419.00      416.00      461.00      427.00      376.00      431.00      379.00      319.00      289.00      220.00      207.00      175.01      184.00      200.00      222.00      183.00      201.00      233.00      228.00      180.01      191.00      272.00      257.00      262.00      265.00      262.00      277.00      267.00      208.00      199.00      221.00      251.00      221.00      257.00      249.00      270.00      244.00      264.00      328.00      356.00      378.00      316.00      359.00      360.00      324.00      312.00      278.00      259.00      237.00      236.01      271.00      286.00      309.00      344.00      285.00      266.00      329.00      303.00      314.00      386.00      404.00      388.00      393.00      337.00      294.00      343.00      326.00      383.00      448.00      521.00      580.00      633.00      696.00      797.00      880.00      870.00      842.00      821.00      829.00      770.00      812.00      884.00      862.00      804.00      717.00      662.00      675.00      604.00      574.00      660.00      665.00      647.00      614.00      589.00      532.00      516.00      508.00      522.00      500.02      510.00      510.00      491.05      491.04      492.00      533.00      496.01      522.00      555.00      541.00      521.01      521.01      579.00      644.00      631.00      609.00      573.00      559.00      564.00
259.00      289.00      283.00      296.00      369.00      379.00      439.00      475.00      484.00      548.00      624.00      684.00      627.00      679.00      603.00      572.00      585.00      539.00      522.00      471.00      464.00      511.00      457.00      461.00      472.00      382.00      344.00      372.00      325.00      243.00      224.00      189.00      183.00      228.00      221.00      189.00      190.00      206.00      230.00      270.00      206.00      186.00      186.00      213.00      205.01      205.01      205.02      236.00      236.00      245.00      317.00      284.00      273.00      266.00      267.00      281.00      305.00      307.00      308.00      279.00      298.00      360.00      423.00      385.00      342.00      340.00      310.00      298.00      275.00      244.00      256.00      281.00      273.00      320.00      396.00      391.00      348.00      295.00      313.00      359.00      382.00      442.00      446.00      430.00      347.00      312.00      344.00      350.00      402.00      392.00      438.00      514.00      587.00      680.00      776.00      855.00      867.00      869.00      873.00      842.00      837.00      882.00      913.00      892.00      890.00      780.00      689.00      605.00      591.00      579.00      566.00      619.00      569.00      575.00      582.00      550.00      521.00      500.05      502.00      500.03      500.02      500.01      500.00      496.00      506.00      510.00      541.00      505.00      513.00      555.00      562.00      521.02      543.00      583.00      600.00      622.00      575.00      573.00      563.00      574.00
223.00      239.00      239.01      300.00      393.00      442.00      433.00      454.00      529.00      603.00      616.00      557.00      586.00      571.00      527.00      489.00      544.00      551.00      508.00      531.00      554.00      530.00      502.00      442.00      434.00      412.00      347.00      315.00      248.00      210.00      195.00      187.00      206.00      241.00      232.00      212.00      277.00      267.00      271.00      233.00      253.00      209.00      186.01      209.00      205.00      213.00      237.00      211.00      232.00      238.00      283.00      315.00      312.00      297.00      291.00      326.00      335.00      326.00      398.00      347.00      337.00      357.00      424.00      395.00      344.00      353.00      345.00      301.00      262.00      286.00      323.00      320.00      337.00      374.00      430.00      473.00      391.00      334.00      412.00      487.00      485.00      503.00      478.00      434.00      351.00      365.00      357.00      370.00      429.00      411.00      414.00      464.00      558.00      671.00      802.00      783.00      764.00      806.00      807.00      757.00      766.00      839.00      856.00      836.00      849.00      789.00      722.00      634.00      592.00      569.00      551.00      553.00      528.00      529.00      529.00      518.00      503.00      500.05      500.04      500.03      504.00      509.00      543.00      548.00      559.00      506.01      538.00      512.00      510.00      527.00      529.00      544.00      573.00      632.00      698.00      669.00      615.00      609.00      613.00      617.00
175.00      242.00      266.00      270.00      356.00      428.00      420.00      431.00      492.00      490.00      495.00      528.00      514.00      503.00      454.00      473.00      508.00      553.00      556.00      615.00      594.00      493.00      443.00      384.00      336.00      345.00      301.00      259.00      241.00      198.00      232.00      209.00      250.00      228.00      226.00      278.00      318.00      317.00      236.00      233.01      264.00      256.00      205.00      195.00      230.00      281.00      342.00      291.00      256.00      240.00      238.01      266.00      308.00      341.00      384.00      397.00      405.00      379.00      430.00      446.00      388.00      430.00      445.00      379.00      334.00      313.00      290.00      289.00      297.00      350.00      385.00      377.00      391.00      433.00      514.00      455.00      389.00      379.00      419.00      517.00      571.00      553.00      542.00      454.00      412.00      403.00      383.00      423.00      476.00      444.00      413.00      456.00      527.00      595.00      628.00      692.00      783.00      781.00      715.00      680.00      669.00      720.00      774.00      719.00      748.00      783.00      690.00      615.00      590.00      589.00      565.00      531.00      515.01      515.00      534.00      518.00      526.00      500.05      524.00      537.00      527.00      522.00      566.00      598.00      560.00      507.00      527.00      513.00      510.01      510.01      522.00      583.00      609.00      649.00      681.00      649.00      623.00      609.01      623.00      561.00
177.00      258.00      217.00      238.00      306.00      345.00      310.00      396.00      445.00      395.00      457.00      471.00      425.00      460.00      425.00      458.00      524.00      505.00      560.00      548.00      538.00      509.00      403.00      328.00      303.00      308.00      267.00      215.00      213.00      233.00      261.00      219.00      250.00      231.00      268.00      341.00      403.00      349.00      237.00      233.02      279.00      220.00      195.01      195.01      241.00      306.00      363.00      311.00      251.00      262.00      283.00      250.00      299.00      375.00      444.00      468.00      492.00      478.00      427.00      491.00      475.00      437.00      435.00      386.00      330.00      316.00      337.00      356.00      315.00      336.00      412.00      429.00      468.00      530.00      548.00      440.00      379.01      430.00      489.00      559.00      605.00      619.00      609.00      508.00      461.00      427.00      444.00      502.00      530.00      511.00      452.00      435.00      468.00      528.00      610.00      715.00      706.00      709.00      678.00      621.00      584.00      648.00      661.00      650.00      657.00      708.00      714.00      647.00      622.00      570.00      545.00      562.00      549.00      537.00      509.00      500.07      500.06      513.00      527.00      550.00      605.00      606.00      620.00      616.00      548.00      515.00      507.01      522.00      510.02      510.02      548.00      595.00      643.00      688.00      687.00      664.00      641.00      636.00      633.00      517.00
147.00      167.00      186.00      216.00      274.00      259.00      288.00      362.00      359.00      346.00      405.00      397.00      391.00      409.00      379.00      445.00      483.00      498.00      566.00      524.00      456.00      424.00      402.00      353.00      313.00      248.00      227.00      230.00      233.00      278.00      292.00      247.00      256.00      292.00      315.00      331.00      423.00      320.00      262.00      233.03      273.00      232.00      195.02      195.02      238.00      298.00      319.00      298.00      254.00      293.00      321.00      276.00      285.00      384.00      420.00      465.00      481.00      496.00      477.00      498.00      484.00      381.00      380.00      345.00      317.00      323.00      396.00      360.00      317.00      341.00      351.00      393.00      427.00      459.00      501.00      439.00      406.00      471.00      569.00      622.00      598.00      593.00      555.00      548.00      507.00      476.00      487.00      550.00      627.00      625.00      514.00      503.00      516.00      621.00      721.00      742.00      657.00      645.00      625.00      610.00      573.00      622.00      615.00      643.00      638.00      661.00      693.00      717.00      618.00      563.00      566.00      613.00      592.00      597.00      572.00      535.00      501.00      527.00      532.00      596.00      670.00      696.00      719.00      627.00      552.00      537.00      513.00      522.00      510.03      510.03      522.00      584.00      616.00      677.00      704.00      689.00      669.00      684.00      654.00      544.00
157.00      157.00      158.00      181.00      230.00      221.00      245.00      332.00      285.00      309.00      329.00      314.00      368.00      374.00      344.00      404.00      447.00      513.00      498.00      506.00      419.00      403.00      359.00      325.00      281.00      285.00      298.00      293.00      276.00      347.00      277.00      269.00      291.00      334.00      382.00      370.00      430.00      361.00      294.00      320.00      268.00      214.00      229.00      220.00      208.00      231.00      258.00      327.00      322.00      314.00      280.00      314.00      323.00      325.00      369.00      398.00      486.00      534.00      509.00      512.00      433.00      353.00      325.00      317.01      317.01      331.00      361.00      401.00      367.00      362.00      347.00      355.00      366.00      379.00      472.00      433.00      415.00      448.00      568.00      566.00      543.00      539.00      545.00      508.00      527.00      559.00      575.00      624.00      655.00      656.00      642.00      632.00      653.00      697.00      684.00      689.00      594.00      566.00      584.00      558.00      568.00      587.00      603.00      643.00      626.00      621.01      672.00      700.00      634.00      606.00      624.00      622.00      618.00      602.00      592.00      532.00      509.00      527.00      574.00      606.00      625.00      644.00      638.00      612.00      602.00      572.00      554.00      542.00      516.00      522.00      527.00      592.00      654.00      672.00      710.00      725.00      667.00      666.00      693.00      597.00
187.00      193.00      210.00      168.00      180.00      184.00      218.00      267.00      250.00      263.00      291.00      311.00      323.00      310.00      325.00      378.00      466.00      469.00      444.00      457.00      392.00      359.00      336.00      344.00      354.00      391.00      364.00      303.00      321.00      340.00      334.00      324.00      330.00      402.00      399.00      440.00      410.00      395.00      323.00      300.00      270.00      271.00      248.00      208.01      208.01      235.00      333.00      353.00      313.00      298.00      293.00      338.00      386.00      362.00      359.00      407.00      467.00      521.00      522.00      462.00      392.00      334.00      365.00      347.00      340.00      329.00      354.00      383.00      378.00      383.00      377.00      348.00      374.00      400.00      450.00      463.00      464.00      499.00      495.00      465.00      455.00      474.00      485.00      490.00      534.00      582.00      667.00      672.00      624.00      611.00      633.00      657.00      657.00      625.00      601.00      595.00      572.00      539.00      546.00      553.00      593.00      629.00      637.00      625.00      621.00      622.00      667.00      623.00      610.00      592.00      591.00      618.00      607.00      585.00      547.00      532.00      540.00      548.00      593.00      650.00      654.00      630.00      610.00      598.00      608.00      617.00      587.00      517.00      520.00      539.00      558.00      611.00      681.00      710.00      745.00      814.00      721.00      623.00      587.00      547.00
271.00      284.00      279.00      226.00      202.00      251.00      216.00      240.00      299.00      250.01      250.02      279.00      300.00      321.00      346.00      393.00      392.00      400.00      392.00      416.00      396.00      412.00      418.00      387.00      372.00      394.00      368.00      304.00      345.00      378.00      415.00      409.00      401.00      414.00      477.00      409.00      362.00      333.00      353.00      386.00      310.00      278.00      216.00      208.02      240.00      223.00      305.00      280.00      238.00      317.00      331.00      370.00      430.00      359.01      359.01      445.00      451.00      437.00      478.00      412.00      376.00      427.00      463.00      377.00      344.00      346.00      363.00      407.00      396.00      374.01      374.00      395.00      415.00      444.00      456.00      474.00      477.00      481.00      433.00      427.00      404.00      435.00      437.00      464.00      492.00      542.00      607.00      630.00      597.00      585.00      611.00      560.00      577.00      543.00      500.00      551.00      533.00      522.00      551.00      596.00      632.00      627.00      622.00      613.01      613.00      594.00      618.00      611.00      609.00      589.00      588.00      585.00      589.00      599.00      562.00      553.00      532.01      575.00      614.00      627.00      620.00      596.00      569.00      567.00      566.00      562.00      527.00      535.00      520.00      539.00      599.00      648.00      709.00      746.00      791.00      831.00      757.00      673.00      576.00      496.00
313.00      330.00      322.00      271.00      220.00      267.00      276.00      310.00      278.00      250.02      259.00      280.00      299.00      294.00      323.00      323.00      305.00      329.00      363.00      442.00      478.00      462.00      394.00      392.00      375.00      381.00      394.00      323.00      385.00      432.00      421.00      442.00      500.00      451.00      472.00      409.00      340.00      333.01      375.00      338.00      274.00      239.00      213.00      221.00      262.00      223.01      232.00      228.01      232.00      319.00      403.00      390.00      435.00      450.00      392.00      410.00      425.00      412.00      468.00      431.00      468.00      496.00      501.00      388.00      362.00      371.00      385.00      414.00      428.00      399.00      450.00      455.00      489.00      470.00      463.00      456.00      463.00      449.00      451.00      400.00      396.00      423.00      489.00      469.00      500.00      511.00      575.00      573.00      575.00      588.00      547.00      488.00      504.00      496.00      471.00      527.00      501.00      546.00      612.00      641.00      665.00      652.00      626.00      635.00      630.00      594.00      591.01      629.00      618.00      605.00      594.00      570.00      561.00      562.00      551.00      550.00      556.00      545.00      585.00      580.00      604.00      583.00      596.00      580.00      553.00      554.00      527.01      533.00      555.00      544.00      589.00      656.00      725.00      769.00      806.00      734.00      669.00      603.00      545.00      480.00
280.00      309.00      303.00      264.00      220.01      238.00      286.00      340.00      310.00      262.00      266.00      259.01      265.00      260.00      264.00      270.00      273.00      322.00      369.00      457.00      493.00      446.00      454.00      441.00      405.00      410.00      387.00      369.00      422.00      467.00      442.00      488.00      583.00      515.00      413.00      398.00      393.00      369.00      429.00      399.00      304.00      251.00      213.01      283.00      264.00      223.02      228.00      254.00      261.00      313.00      425.00      417.00      399.00      421.00      431.00      401.00      411.00      432.00      485.00      521.00      531.00      588.00      480.00      462.00      449.00      401.00      418.00      449.00      476.00      477.00      511.00      536.00      510.00      445.00      415.00      426.00      449.00      422.00      389.00      381.00      400.00      441.00      459.00      469.00      505.00      533.00      560.00      588.00      603.00      574.00      525.00      516.00      462.00      464.00      460.00      482.00      525.00      482.00      557.00      643.00      644.00      642.00      651.00      676.00      610.00      591.00      594.00      602.00      594.00      591.00      591.00      573.00      534.00      577.00      583.00      598.00      603.00      590.00      557.00      574.00      599.00      606.00      590.00      560.00      586.00      539.00      540.00      589.00      594.00      570.00      599.00      629.00      682.00      762.00      743.00      695.00      655.00      590.00      534.00      506.00
266.00      276.00      294.00      228.00      268.00      262.00      284.00      361.00      312.00      313.00      286.00      297.00      259.02      269.00      318.00      317.00      376.00      326.00      421.00      482.00      470.00      477.00      482.00      464.00      466.00      473.00      460.00      406.00      421.00      453.00      485.00      541.00      558.00      484.00      420.00      488.00      417.00      345.00      332.00      380.00      332.00      264.00      213.02      225.00      223.03      223.03      228.00      274.00      302.00      320.00      382.00      357.00      378.00      391.00      403.00      433.00      464.00      496.00      524.00      610.00      617.00      637.00      567.00      549.00      475.00      472.00      474.00      503.00      538.00      548.00      557.00      564.00      520.00      478.00      441.00      412.00      408.00      400.00      367.02      394.00      407.00      413.00      426.00      443.00      448.00      502.00      587.00      582.00      533.00      519.00      462.00      442.00      447.00      452.00      469.00      460.01      460.02      484.00      572.00      603.00      612.00      628.00      625.00      635.00      609.00      589.00      569.00      573.00      590.00      584.00      551.00      536.00      526.00      576.00      600.00      600.00      586.00      565.00      557.01      567.00      594.00      581.00      574.00      599.00      560.00      540.00      565.00      647.00      657.00      649.00      610.00      624.00      682.00      662.00      640.00      622.00      631.00      599.00      591.00      530.00
205.00      245.00      322.00      251.00      292.00      322.00      318.00      349.00      318.00      369.00      336.00      269.00      281.00      338.00      324.00      406.00      470.00      467.00      444.00      447.00      447.01      454.00      454.01      488.00      506.00      520.00      502.00      514.00      468.00      470.00      524.00      598.00      585.00      522.00      435.00      425.00      368.00      314.00      279.00      280.00      261.00      216.00      213.03      224.00      252.00      267.00      300.00      293.00      305.00      343.00      345.00      365.00      388.00      437.00      434.00      483.00      541.00      595.00      619.00      684.00      696.00      674.00      683.00      607.00      569.00      549.00      546.00      584.00      603.00      577.00      565.00      525.00      507.00      493.00      453.00      399.00      367.00      367.01      390.00      425.00      440.00      451.00      450.00      462.00      498.00      545.00      532.00      477.00      466.00      454.00      425.00      479.00      493.00      501.00      521.00      499.00      501.00      532.00      578.00      582.00      552.00      545.00      571.00      612.00      610.00      588.00      573.00      550.00      540.00      486.00      488.00      487.00      540.00      559.00      599.00      612.00      607.00      593.00      603.00      592.00      596.00      605.00      587.00      552.00      540.00      574.00      596.00      650.00      697.00      680.00      697.00      721.00      723.00      631.00      543.00      513.00      517.00      508.00      512.00      480.00
241.00      245.00      313.00      297.00      300.00      348.00      414.00      333.00      359.00      332.00      279.00      292.00      316.00      346.00      394.00      402.00      420.00      448.00      494.00      497.00      514.00      492.00      454.01      468.00      499.00      547.00      620.00      612.00      526.00      556.00      650.00      573.00      531.00      483.00      384.00      332.00      305.00      278.00      255.00      243.00      236.00      228.00      214.00      220.00      247.00      276.00      293.00      351.00      301.00      354.00      359.00      380.00      436.00      428.00      509.00      570.00      611.00      634.00      677.00      716.00      763.00      743.00      731.00      694.00      593.00      550.00      573.00      575.00      574.00      543.00      552.00      504.00      496.00      445.00      381.00      356.02      376.00      422.00      412.00      436.00      464.00      521.00      525.00      585.00      591.00      567.00      504.00      452.00      423.00      420.01      459.00      533.00      521.00      522.00      527.00      552.00      541.00      531.00      482.00      478.00      484.00      506.00      538.00      568.00      595.00      578.00      579.00      549.00      487.00      474.00      466.00      487.00      512.00      506.00      558.00      581.00      580.00      622.00      635.00      574.00      560.00      576.00      556.00      542.00      532.01      609.00      660.00      662.00      678.00      694.00      742.00      846.00      793.00      743.00      650.00      550.00      473.00      438.00      447.00      432.00
330.00      356.00      281.00      333.00      385.00      387.00      414.00      382.00      356.00      301.00      311.00      364.00      347.00      394.00      398.00      399.00      399.01      483.00      524.00      507.00      502.00      454.02      456.00      502.00      560.00      582.00      629.00      688.00      625.00      709.00      705.00      550.00      460.00      428.00      393.00      346.00      308.00      313.00      313.00      265.00      241.00      278.00      217.00      235.00      272.00      276.00      326.00      344.00      317.00      331.00      375.00      397.00      458.00      538.00      627.00      653.00      638.00      653.00      678.00      720.00      724.00      701.00      695.00      641.00      545.00      547.00      549.00      502.00      518.00      515.00      517.00      469.00      447.00      413.00      384.00      356.01      376.00      422.00      462.00      492.00      461.00      516.00      569.00      592.00      565.00      558.00      475.00      419.00      420.00      443.00      507.00      509.00      501.00      515.00      535.00      512.00      498.00      449.00      450.00      498.00      492.00      486.00      504.00      531.00      561.00      576.00      533.00      508.00      485.00      459.02      471.00      467.00      461.00      489.00      486.00      526.00      535.00      596.00      634.00      634.00      605.00      523.00      573.00      536.00      532.00      611.00      609.00      612.00      652.00      731.00      750.00      803.00      781.00      742.00      673.00      598.00      546.00      492.00      437.00      404.00
344.00      402.00      315.00      294.00      396.00      460.00      448.00      405.00      349.00      341.00      377.00      390.00      416.00      407.00      412.00      466.00      470.00      455.00      516.00      515.00      478.00      454.03      479.00      505.00      584.00      656.00      717.00      727.00      740.00      804.00      655.00      577.00      538.00      556.00      461.00      405.00      374.00      392.00      322.00      275.00      303.00      302.00      225.00      262.00      272.00      338.00      353.00      372.00      325.00      346.00      391.00      421.00      506.00      607.00      642.00      623.00      548.00      586.00      631.00      651.00      697.00      666.00      604.00      569.00      520.00      502.00      478.00      450.00      422.00      466.00      474.00      379.00      356.00      345.00      356.00      387.00      398.00      432.00      425.00      420.00      458.00      523.00      571.00      528.00      518.00      519.00      446.00      402.00      449.00      486.00      479.00      485.00      484.00      486.00      479.00      458.00      440.00      483.00      499.00      471.00      457.00      463.00      481.00      505.00      558.00      549.00      510.00      495.00      483.00      472.00      459.01      459.00      441.01      447.00      456.00      470.00      511.00      565.00      629.00      633.00      579.00      539.00      513.00      487.00      555.00      575.00      613.00      642.00      695.00      749.00      785.00      765.00      736.00      693.00      674.00      614.00      586.00      551.00      443.00      388.00
366.00      438.00      372.00      305.00      373.00      459.00      471.00      396.00      394.00      395.00      415.00      455.00      483.00      445.00      464.00      465.00      504.00      501.00      514.00      540.00      493.00      454.04      481.00      546.00      607.00      670.00      776.00      831.00      837.00      799.00      734.00      730.00      671.00      545.00      544.00      482.00      404.00      335.00      318.00      334.00      302.00      245.00      238.00      286.00      295.00      300.00      370.00      430.00      362.00      381.00      426.00      529.00      593.00      623.00      589.00      577.00      533.00      531.00      572.00      597.00      660.00      603.00      502.00      494.00      518.00      493.00      433.00      440.00      391.00      433.00      425.00      339.00      304.02      352.00      438.00      405.00      385.00      389.00      387.00      426.00      474.00      500.00      489.00      454.00      483.00      481.00      423.00      397.01      431.00      467.00      453.00      443.00      439.00      430.00      430.01      434.00      476.00      473.00      454.00      442.00      460.00      477.00      493.00      536.00      546.00      552.00      524.00      511.00      498.00      498.00      477.00      475.00      462.00      441.00      424.02      439.00      507.00      571.00      610.00      656.00      592.00      558.00      475.00      504.00      578.00      615.00      676.00      678.00      699.00      738.00      826.00      827.00      742.00      633.00      633.00      624.00      603.00      558.00      452.00      374.00
464.00      473.00      445.00      350.00      328.00      364.00      405.00      426.00      485.00      462.00      482.00      487.00      534.00      521.00      475.00      464.01      530.00      586.00      542.00      570.00      531.00      469.00      504.00      575.00      629.00      745.00      790.00      736.00      750.00      856.00      876.00      761.00      619.00      513.00      450.00      422.00      371.00      340.00      354.00      306.00      274.00      255.00      274.00      298.00      306.00      320.00      353.00      442.00      454.00      466.00      536.00      588.00      615.00      555.00      527.00      535.00      516.00      467.00      524.00      545.00      600.00      550.00      445.00      446.00      477.00      458.00      402.00      403.00      389.00      368.00      397.00      318.00      304.01      394.00      442.00      406.00      391.00      373.00      372.00      365.00      370.00      403.00      385.00      424.00      455.00      405.00      397.00      442.00      468.00      443.00      422.00      417.05      417.05      440.00      473.00      480.00      449.00      438.01      439.00      454.00      468.00      502.00      549.00      539.00      540.00      548.00      542.00      530.00      519.00      508.00      492.00      452.00      446.00      446.00      431.00      424.01      476.00      512.00      584.00      598.00      550.00      533.00      446.00      499.00      604.00      634.00      641.00      653.00      685.00      730.00      843.00      806.00      728.00      679.00      584.00      563.00      557.00      520.00      413.00      371.00
585.00      566.00      484.00      417.00      356.00      328.01      354.00      406.00      470.00      502.00      533.00      533.00      616.00      547.00      467.00      479.00      526.00      591.00      585.00      595.00      550.00      517.00      531.00      516.00      599.00      737.00      709.00      692.00      765.00      848.00      731.00      628.00      550.00      498.00      451.00      397.00      386.00      423.00      407.00      352.00      324.00      282.00      367.00      383.00      411.00      427.00      498.00      514.00      517.00      528.00      548.00      536.00      566.00      512.00      509.00      514.00      500.00      476.00      443.00      488.00      526.00      510.00      442.00      411.00      409.00      435.00      408.00      391.00      320.00      335.00      343.00      340.00      304.00      381.00      425.00      400.00      378.00      355.00      365.00      340.00      350.00      372.00      372.01      382.00      383.00      383.01      446.00      417.00      417.01      417.02      431.00      417.04      435.00      448.00      454.00      441.00      438.00      447.00      483.00      478.00      517.00      517.00      548.00      528.00      542.00      557.00      547.00      560.00      557.00      539.00      475.00      483.00      489.00      469.00      481.00      424.00      445.00      465.00      503.00      572.00      492.00      457.00      439.03      482.00      555.00      612.00      644.00      647.00      667.00      752.00      814.00      715.00      640.00      663.00      588.00      532.00      510.00      475.00      409.00      393.00
739.00      683.00      590.00      515.00      395.00      372.00      433.00      454.00      461.00      454.01      488.00      539.00      605.00      547.00      511.00      501.00      497.00      556.00      632.00      573.00      553.00      538.00      580.00      574.00      579.00      678.00      644.00      717.00      818.00      875.00      795.00      668.00      560.00      513.00      490.00      483.00      410.00      380.00      348.00      324.01      337.00      383.00      446.00      512.00      559.00      533.00      534.00      481.00      448.00      490.00      495.00      509.00      524.00      510.00      485.00      501.00      520.00      536.00      445.00      419.00      498.00      487.00      467.00      416.00      373.00      395.00      390.00      335.00      287.05      287.05      313.00      369.00      303.00      368.00      356.00      387.00      407.00      330.00      328.02      341.00      385.00      416.00      384.00      372.02      397.00      398.00      410.00      442.00      417.01      417.02      417.03      417.04      444.00      451.00      444.00      424.00      424.01      435.00      449.00      465.00      493.00      519.00      528.00      523.00      540.00      544.00      559.00      544.00      514.00      511.00      515.00      531.00      520.00      512.00      474.00      412.01      421.00      495.00      561.00      529.00      467.00      439.02      510.00      557.00      622.00      604.00      653.00      668.00      680.00      732.00      740.00      643.00      546.00      604.00      560.00      511.00      480.00      471.00      412.00      390.00
757.00      773.00      625.00      506.00      475.00      438.00      435.00      433.01      454.00      454.01      484.00      574.00      633.00      587.00      504.00      503.00      537.00      581.00      636.00      621.00      563.00      538.01      575.00      622.00      578.00      598.00      627.00      675.00      742.00      849.00      854.00      767.00      634.00      587.00      513.00      439.00      389.00      422.00      409.00      449.00      481.00      498.00      521.00      634.00      579.00      535.00      498.00      444.00      418.01      465.00      473.00      485.00      488.00      466.00      465.00      480.00      447.00      452.00      485.00      366.00      437.00      434.00      435.00      409.00      345.00      361.00      340.00      306.00      287.04      287.04      287.05      298.00      320.00      350.00      318.00      336.00      337.00      328.01      328.02      400.00      421.00      468.00      455.00      439.00      432.00      409.00      421.00      441.00      417.02      417.02      422.00      417.04      418.00      418.01      418.02      430.00      455.00      424.02      424.03      429.00      457.00      502.00      515.00      542.00      543.00      551.00      537.00      516.00      504.00      470.00      456.00      466.00      481.00      493.00      463.00      412.00      420.00      464.00      540.00      468.00      439.01      460.00      550.00      595.00      649.00      635.00      639.00      670.00      708.00      682.00      653.00      607.00      531.00      525.00      469.00      452.00      418.00      461.00      396.00      347.00
761.00      741.00      643.00      572.00      521.00      464.00      486.00      433.02      467.00      501.00      503.00      600.00      617.00      559.00      522.00      565.00      595.00      648.00      666.00      626.00      571.00      542.00      556.00      602.00      634.00      603.00      615.00      654.00      714.00      766.00      738.00      710.00      638.00      576.00      488.00      483.00      514.00      549.00      491.00      584.00      599.00      571.00      655.00      633.00      596.00      580.00      525.00      510.00      438.00      418.00      410.00      422.00      410.00      397.00      426.00      426.00      385.00      392.00      481.00      366.00      344.00      427.00      385.00      372.00      353.00      320.00      322.00      287.03      287.03      347.00      340.00      290.00      290.01      296.00      290.03      316.00      328.00      328.01      361.00      410.00      449.00      514.00      477.00      456.00      439.00      434.00      437.00      424.00      418.00      417.03      433.00      418.00      438.00      429.00      448.00      467.00      456.00      437.00      454.00      438.00      450.00      471.00      497.00      521.00      534.00      539.00      556.00      532.00      515.00      503.00      458.00      439.00      432.00      433.00      453.00      425.00      376.01      422.00      511.00      439.00      450.00      533.00      597.00      652.00      687.00      655.00      639.00      685.00      692.00      666.00      587.00      559.00      502.00      469.00      436.00      402.00      374.00      408.00      353.00      339.00
592.00      612.00      620.00      611.00      527.00      491.00      478.00      440.00      465.00      482.00      558.00      634.00      679.00      599.00      585.00      637.00      682.00      677.00      624.00      606.00      567.00      577.00      609.00      678.00      683.00      651.00      661.00      712.00      721.00      791.00      737.00      751.00      756.00      650.00      653.00      646.00      664.00      602.00      584.00      658.00      683.00      678.00      687.00      659.00      579.00      550.00      532.00      492.00      469.00      377.00      358.00      376.00      343.00      375.00      344.00      331.00      320.00      354.00      421.00      367.00      294.00      403.00      408.00      339.00      309.00      312.00      307.00      287.02      322.00      391.00      397.00      321.00      299.00      290.02      328.00      378.00      390.00      379.00      392.00      428.00      465.00      455.00      429.00      424.00      420.00      425.00      434.00      435.00      428.00      424.00      422.00      418.01      418.01      418.02      437.00      468.00      494.00      487.00      504.00      472.00      471.00      478.00      491.00      527.00      555.00      567.00      547.00      516.00      519.00      514.00      483.00      445.00      409.00      434.00      406.00      436.00      433.00      376.00      438.00      392.00      487.00      569.00      670.00      698.00      701.00      675.00      665.00      672.00      674.00      614.00      556.00      528.00      470.00      418.00      395.00      345.00      341.00      344.00      326.00      331.00
537.00      482.00      524.00      510.00      512.00      509.00      488.00      468.00      460.00      478.00      549.00      670.00      702.00      673.00      697.00      703.00      750.00      655.00      616.00      610.00      639.00      587.00      666.00      664.00      728.00      692.00      754.00      744.00      799.00      862.00      820.00      845.00      838.00      793.00      813.00      807.00      754.00      634.00      704.00      749.00      723.00      724.00      648.00      584.00      539.00      522.00      505.00      481.00      421.00      370.00      311.00      341.00      316.00      300.00      294.00      297.00      312.00      303.00      353.00      369.00      278.01      308.00      400.00      343.00      321.00      295.00      287.01      287.02      287.03      338.00      358.00      391.00      327.00      331.00      415.00      392.00      382.00      407.00      416.00      409.00      428.00      410.00      403.00      385.01      407.00      420.00      415.00      438.00      431.00      435.00      430.00      450.00      429.00      434.00      458.00      496.00      495.00      483.00      526.00      505.00      513.00      514.00      535.00      550.00      580.00      524.00      529.00      529.00      525.00      522.00      501.00      486.00      442.00      408.00      380.00      377.00      383.00      370.06      371.00      458.00      535.00      575.00      650.00      688.00      736.00      700.00      717.00      704.00      655.00      551.00      529.00      500.00      454.00      451.00      420.00      373.00      339.00      300.00      323.00      314.00
425.00      398.00      453.00      408.00      430.00      503.00      537.00      507.00      467.00      477.00      527.00      624.00      713.00      765.00      715.00      704.00      747.00      738.00      725.00      700.00      681.00      637.00      709.00      763.00      783.00      747.00      835.00      842.00      832.00      883.00      879.00      890.00      863.00      872.00      802.00      782.00      710.00      709.00      668.00      635.00      633.00      668.00      617.00      552.00      502.00      466.00      437.00      424.00      357.00      335.00      297.00      303.00      293.00      290.00      268.01      303.00      288.00      287.00      324.00      341.00      278.00      280.00      298.00      314.00      309.00      287.00      287.01      339.00      322.00      337.00      337.01      372.00      408.00      420.00      409.00      381.01      389.00      407.00      397.00      390.00      414.00      394.00      399.00      385.00      385.01      396.00      406.00      407.00      405.00      432.00      437.00      437.00      427.00      429.00      435.00      455.00      456.00      483.00      540.00      555.00      567.00      565.00      552.00      530.00      524.00      485.00      471.00      478.00      494.00      489.00      488.00      511.00      484.00      447.00      426.00      399.00      370.05      370.05      382.00      450.00      508.00      555.00      595.00      643.00      689.00      741.00      727.00      718.00      656.00      546.00      483.00      469.00      458.00      441.00      418.00      382.00      384.00      362.00      293.00      325.00
360.00      362.00      355.00      377.00      452.00      556.00      579.00      513.00      471.00      473.00      519.00      617.00      697.00      683.00      675.00      668.00      763.00      827.00      829.00      775.00      736.00      736.00      674.00      729.00      766.00      834.00      895.00      924.00      905.00      903.00      929.00      959.00      933.00      868.00      782.00      771.00      773.00      674.00      586.00      562.00      579.00      608.00      615.00      525.00      479.00      406.00      376.00      350.00      341.00      319.00      300.00      283.00      279.00      296.00      268.00      281.00      271.00      283.00      315.00      336.00      282.00      254.03      301.00      267.00      267.00      306.00      358.00      359.00      424.00      432.00      381.00      367.00      376.00      399.00      381.00      387.00      383.00      391.00      382.00      393.00      383.00      390.00      374.02      397.00      396.00      385.02      388.00      392.00      398.00      404.00      403.00      418.00      454.00      433.00      429.01      429.02      478.00      498.00      501.00      558.00      565.00      544.00      508.00      468.00      436.00      453.00      442.00      445.00      447.00      472.00      431.00      486.00      454.00      462.00      441.00      417.00      401.00      370.04      389.00      414.00      486.00      558.00      579.00      630.00      663.00      689.00      731.00      712.00      656.00      575.00      504.00      478.00      485.00      468.00      398.00      354.00      321.00      323.00      291.00      303.00
346.00      299.00      362.00      389.00      486.00      627.00      617.00      542.00      479.00      508.00      548.00      574.00      554.00      530.00      538.00      675.00      721.00      765.00      837.00      811.00      795.00      763.00      782.00      792.00      820.00      892.00      880.00      937.00      976.00      940.00      957.00      936.00      925.00      828.00      840.00      842.00      745.00      614.00      562.00      496.00      521.00      546.00      548.00      526.00      485.00      413.00      373.00      341.01      341.00      319.00      304.00      328.00      317.00      271.00      274.00      266.03      269.00      306.00      315.00      328.00      261.00      254.02      254.02      264.00      325.00      403.00      429.00      452.00      505.00      460.00      428.00      411.00      387.00      367.01      367.02      374.00      381.00      373.00      388.00      386.00      374.00      374.01      381.00      397.00      400.00      399.00      412.00      402.00      420.00      400.00      416.00      453.00      458.00      495.00      476.00      443.00      446.00      488.00      514.00      510.00      565.00      494.00      461.00      440.00      410.00      415.00      407.00      412.00      429.00      431.00      401.00      443.00      412.00      427.00      422.00      372.00      370.03      410.00      447.00      416.00      443.00      495.00      530.00      563.00      603.00      662.00      682.00      666.00      665.00      590.00      511.00      537.00      503.00      464.00      406.00      386.00      350.00      302.00      271.00      246.00
290.00      303.00      324.00      377.00      430.00      600.00      594.00      582.00      512.00      533.00      476.00      468.00      465.00      452.00      546.00      669.00      639.00      710.00      696.00      682.00      681.00      780.00      862.00      925.00      898.00      823.00      733.00      828.00      847.00      821.00      784.00      816.00      916.00      929.00      849.00      756.00      692.00      630.00      584.00      486.00      427.00      457.00      477.00      457.00      437.00      387.00      368.00      380.00      343.00      302.00      290.02      299.00      310.00      266.02      272.00      266.02      275.00      312.00      267.00      305.00      312.00      267.00      254.01      280.00      303.00      348.00      456.00      524.00      504.00      458.00      422.00      390.00      367.00      384.00      369.00      367.03      372.00      373.00      373.01      373.02      383.00      400.00      395.00      426.00      421.00      426.00      444.00      420.00      412.00      429.00      471.00      472.00      537.00      525.00      490.00      446.00      443.01      467.00      493.00      506.00      508.00      476.00      433.00      424.00      407.00      410.00      399.00      396.00      409.00      411.00      372.00      405.00      428.00      388.00      434.00      370.02      384.00      443.00      516.00      504.00      472.00      458.00      504.00      574.00      630.00      668.00      688.00      649.00      595.00      550.00      518.00      512.00      510.00      488.00      425.00      445.00      388.00      371.00      332.00      273.00
243.00      263.00      299.00      372.00      462.00      568.00      505.00      559.00      457.00      436.00      418.00      419.00      437.00      415.00      495.00      536.00      564.00      606.00      604.00      625.00      717.00      796.00      928.00      999.00      965.00      832.00      683.00      669.00      722.00      723.00      670.00      724.00      796.00      844.00      793.00      751.00      681.00      635.00      567.00      521.00      444.00      399.00      376.00      387.00      413.00      398.00      396.00      386.00      381.00      363.00      313.00      290.01      290.00      266.02      266.01      266.01      292.00      283.00      248.00      251.00      267.00      254.00      254.01      308.00      346.00      384.00      434.00      409.00      397.00      387.00      366.00      358.01      403.00      393.00      367.04      388.00      373.00      389.00      398.00      396.00      408.00      417.00      433.00      448.00      461.00      464.00      457.00      437.00      419.00      474.00      520.00      544.00      583.00      532.00      530.00      521.00      496.00      470.00      505.00      560.00      545.00      468.00      429.00      418.00      378.02      378.01      378.00      363.02      363.01      382.00      360.03      391.00      395.00      365.00      372.00      370.01      386.00      485.00      528.00      578.00      549.00      522.00      539.00      545.00      574.00      622.00      662.00      676.00      662.00      579.00      525.00      500.00      488.01      489.00      464.00      424.00      418.00      410.00      347.00      305.00
299.00      351.00      398.00      439.00      461.00      499.00      479.00      511.00      456.00      355.00      359.00      351.00      360.00      352.00      390.00      458.00      557.00      523.00      579.00      660.00      756.00      853.00      992.00      924.00      873.00      808.00      648.00      557.00      594.00      602.00      621.00      639.00      673.00      702.00      678.00      673.00      718.00      744.00      654.00      547.00      427.00      401.00      380.00      355.00      341.01      349.00      379.00      401.00      411.00      389.00      378.00      372.00      374.00      342.00      312.00      266.00      283.00      277.00      269.00      241.16      246.00      268.00      274.00      307.00      340.00      350.00      365.00      364.00      344.00      327.00      358.00      412.00      400.00      383.00      367.05      377.00      393.00      400.00      407.00      452.00      425.00      439.00      432.00      447.00      455.00      484.00      474.00      480.00      455.00      484.00      564.00      577.00      558.00      575.00      589.00      574.00      521.00      532.00      487.00      517.00      516.00      465.00      415.00      388.00      378.02      378.01      378.00      390.00      363.01      363.00      360.02      373.00      374.00      349.05      370.00      426.00      438.00      495.00      523.00      548.00      520.00      502.00      506.00      545.00      576.00      595.00      620.00      618.00      592.00      560.00      562.00      539.00      550.00      546.00      541.00      476.00      434.00      381.00      317.00      265.00
327.00      352.00      386.00      440.00      422.00      417.00      435.00      419.00      397.00      326.00      301.00      299.00      309.00      342.00      432.00      471.00      463.00      567.00      641.00      680.00      772.00      848.00      936.00      828.00      757.00      721.00      568.00      496.00      503.00      550.00      545.00      550.00      590.00      594.00      592.00      599.00      694.00      750.00      683.00      613.00      541.00      515.00      465.00      453.00      402.00      341.00      321.02      321.01      321.00      320.00      313.00      326.00      305.00      311.00      315.00      290.00      248.00      245.00      254.00      241.15      245.00      245.01      276.00      280.00      297.00      316.00      344.00      346.00      323.00      368.00      364.00      381.00      382.00      392.00      375.00      377.00      391.00      402.00      425.00      442.00      420.00      442.00      471.00      456.00      449.00      462.00      493.00      496.00      518.00      567.00      553.00      521.00      568.00      569.00      593.00      613.00      559.00      547.00      504.00      444.00      453.00      425.00      394.00      388.00      402.00      385.00      385.00      424.00      382.00      374.00      374.00      360.01      365.00      349.04      379.00      435.00      506.00      500.00      512.00      492.00      504.00      489.00      538.00      560.00      542.00      581.00      574.00      583.00      581.00      583.00      590.00      568.00      555.00      541.00      526.00      474.00      451.00      420.00      373.00      294.00
307.00      298.00      313.00      377.00      380.00      358.00      367.00      372.00      329.00      278.00      284.00      302.00      316.00      352.00      373.00      414.00      456.00      532.00      584.00      679.00      718.00      776.00      881.00      779.00      687.00      643.00      564.00      468.00      451.00      503.00      506.00      548.00      576.00      540.00      519.00      552.00      632.00      667.00      678.00      682.00      644.00      559.00      508.00      510.00      476.00      417.00      369.00      355.00      341.00      301.00      287.00      294.00      273.00      281.00      258.00      265.00      254.00      241.14      243.00      241.14      258.00      274.00      295.00      298.00      284.00      317.00      319.00      295.00      329.00      338.00      377.00      411.00      423.00      419.00      375.01      396.00      381.00      390.00      402.00      406.00      438.00      465.00      486.00      487.00      479.00      487.00      488.00      520.00      547.00      518.00      511.00      485.00      495.00      537.00      585.00      621.00      593.00      586.00      539.00      475.00      426.00      415.00      435.00      447.00      437.00      408.00      385.01      418.00      402.00      389.00      374.00      369.00      360.00      367.00      349.03      421.00      489.00      498.00      470.00      528.00      487.01      515.00      495.00      506.00      509.00      532.00      534.00      549.00      592.00      621.00      608.00      566.00      537.00      503.00      479.00      404.00      419.00      404.00      340.00      301.00
270.00      278.00      274.00      323.00      333.00      309.00      345.00      376.00      303.00      276.01      293.00      307.00      318.00      352.00      398.00      454.00      498.00      497.00      552.00      617.00      697.00      832.00      853.00      729.00      651.00      591.00      507.00      479.00      412.00      425.00      436.00      523.00      557.00      529.00      501.00      507.00      613.00      610.00      602.00      616.00      624.00      568.00      502.00      474.00      449.00      419.00      404.00      361.00      341.00      301.00      286.00      270.00      254.04      254.03      254.02      254.01      266.00      250.00      241.13      256.00      282.00      296.00      301.00      281.00      273.00      289.00      277.01      302.00      295.00      335.00      352.00      442.00      408.00      383.00      375.02      403.00      422.00      422.00      398.00      398.01      421.00      441.00      480.00      479.00      483.00      465.00      509.00      529.00      509.00      505.00      471.00      451.00      491.00      499.00      598.00      631.00      659.00      602.00      561.00      488.00      459.00      452.00      437.00      453.00      460.00      401.00      394.00      420.00      459.00      395.00      373.00      367.00      392.00      395.00      349.02      361.00      442.00      501.00      441.00      487.00      505.00      502.00      495.01      506.00      510.00      552.00      579.00      617.00      638.00      662.00      660.00      607.00      564.00      537.00      495.00      417.00      359.00      372.00      308.00      303.00
238.00      259.00      292.00      274.00      286.00      296.00      331.00      315.00      276.00      285.00      304.00      321.00      348.00      359.00      398.00      473.00      514.00      543.00      570.00      644.00      774.00      885.00      814.00      739.00      671.00      632.00      612.00      523.00      442.00      379.00      427.00      494.00      511.00      462.00      486.00      498.00      570.00      568.00      542.00      551.00      569.00      592.00      489.00      427.00      405.00      381.00      360.00      344.00      308.00      289.00      286.00      289.00      254.04      271.00      275.00      276.00      266.00      263.00      241.12      299.00      325.00      323.00      273.00      265.03      265.03      277.00      277.01      279.00      279.01      315.00      401.00      458.00      417.00      418.00      385.00      413.00      485.00      452.00      455.00      438.00      398.02      407.00      428.00      447.00      460.00      487.00      507.00      518.00      479.00      440.00      436.00      431.00      454.00      491.00      526.00      575.00      660.00      586.00      524.00      499.00      472.00      454.00      439.00      423.00      442.00      398.00      433.00      455.00      422.00      402.00      381.00      419.00      405.00      371.00      349.01      359.00      373.00      431.00      432.00      465.00      529.00      524.00      502.00      519.00      549.00      615.00      654.00      660.00      703.00      699.00      611.00      573.00      540.00      486.00      471.00      434.00      360.00      310.00      266.00      269.00
235.00      250.00      252.00      254.00      288.00      283.00      275.00      275.01      275.02      317.00      334.00      368.00      387.00      421.00      453.00      528.00      575.00      624.00      666.00      765.00      865.00      910.00      855.00      815.00      805.00      757.00      663.00      580.00      479.00      401.00      367.01      451.00      420.00      423.00      467.00      472.00      513.00      510.00      508.00      484.00      507.00      540.00      484.00      422.00      410.00      366.00      336.00      314.00      309.00      302.00      268.01      268.00      281.00      291.00      317.00      315.00      308.00      293.00      241.11      264.00      296.00      318.00      278.00      265.02      300.00      328.00      334.00      344.00      320.00      335.00      390.00      445.00      437.00      393.00      390.00      445.00      493.00      474.00      462.00      431.00      425.00      453.00      443.00      428.01      433.00      439.00      458.00      482.00      447.00      410.00      390.00      413.00      397.00      436.00      431.00      478.00      605.00      566.00      533.00      511.00      498.00      449.00      434.00      416.00      409.00      463.00      499.00      453.00      398.00      395.00      418.00      463.00      435.00      367.00      354.00      349.00      394.00      438.00      434.00      429.00      490.00      529.00      512.00      522.00      566.00      611.00      623.00      620.00      689.00      709.00      610.00      529.00      507.00      505.00      495.00      468.00      392.00      321.00      271.00      250.00
217.00      237.00      230.00      267.00      275.00      257.01      278.00      329.00      361.00      419.00      413.00      412.00      461.00      511.00      568.00      664.00      681.00      764.00      756.00      809.00      882.00      947.00      867.00      774.00      762.00      752.00      698.00      648.00      533.00      474.00      410.00      367.00      373.00      376.00      425.00      407.00      455.00      463.00      456.00      457.00      458.00      505.00      519.00      454.00      446.00      411.00      386.00      370.00      335.00      318.00      310.00      298.00      297.00      320.00      346.00      304.00      274.00      241.10      241.10      263.00      274.00      265.00      265.01      290.00      365.00      403.00      433.00      420.00      400.00      376.00      385.00      451.00      424.00      432.00      432.00      439.00      510.00      485.00      442.00      447.00      476.00      483.00      457.00      442.00      441.00      441.00      449.00      388.00      378.00      380.00      324.00      359.00      361.00      398.00      400.00      444.00      494.00      482.00      442.00      453.00      479.00      470.00      447.00      441.00      444.00      498.00      459.00      460.00      407.00      399.00      403.00      427.00      416.00      388.00      347.01      347.00      345.04      396.00      384.00      401.00      447.00      506.00      511.00      473.00      481.00      478.00      537.00      601.00      644.00      683.00      596.00      544.00      501.00      479.00      439.00      416.00      399.00      332.00      297.00      278.00
215.00      220.00      228.00      239.00      257.00      295.00      308.00      336.00      453.00      543.00      559.00      549.00      595.00      663.00      712.00      748.00      763.00      776.00      751.00      771.00      894.00      877.00      829.00      708.00      701.00      712.00      672.00      634.00      604.00      526.00      461.00      380.00      364.00      356.01      359.00      356.00      397.00      416.00      420.00      404.00      415.00      445.00      462.00      438.00      391.00      396.00      366.00      353.00      349.00      334.00      314.00      321.00      310.00      331.00      331.00      308.00      252.00      241.09      241.10      241.11      254.00      294.00      306.00      331.00      334.00      391.00      450.00      433.00      416.00      448.00      461.00      488.00      491.00      488.00      444.00      465.00      485.00      463.00      450.00      491.00      516.00      522.00      504.00      469.00      452.00      423.00      388.00      340.00      314.00      337.00      288.00      328.00      350.00      347.00      417.00      411.00      469.00      426.00      368.00      363.00      428.00      478.00      474.00      449.00      470.00      508.00      513.00      458.00      430.00      399.01      437.00      437.00      441.00      380.00      376.00      358.00      345.04      345.03      345.02      367.00      419.00      456.00      483.00      436.00      408.00      430.00      515.00      596.00      662.00      633.00      553.00      508.00      465.00      421.00      445.00      368.00      324.00      289.00      262.00      277.00
225.00      257.00      291.00      309.00      337.00      381.00      374.00      394.00      391.00      455.00      490.00      520.00      526.00      622.00      680.00      724.00      722.00      701.00      721.00      783.00      858.00      818.00      752.00      695.00      608.00      643.00      633.00      579.00      582.00      556.00      507.00      437.00      370.00      356.01      356.00      329.00      332.00      379.00      390.00      407.00      358.00      380.00      387.00      351.00      344.00      377.00      367.00      346.01      346.00      345.00      345.00      337.00      310.00      306.00      326.00      308.00      241.08      246.00      261.00      279.00      323.00      340.00      372.00      389.00      386.00      408.00      452.00      455.00      498.00      507.00      502.00      533.00      524.00      480.00      487.00      511.00      478.00      462.00      503.00      564.00      567.00      599.00      532.00      482.00      468.00      397.00      323.00      291.00      315.00      291.00      280.00      285.00      338.00      371.00      374.00      426.00      400.00      378.00      367.00      353.00      399.00      468.00      459.00      458.00      496.00      544.00      517.00      451.00      413.00      400.00      420.00      448.00      416.00      412.00      407.00      364.00      346.00      345.03      349.00      345.01      350.00      388.00      409.00      433.00      375.00      415.00      470.00      546.00      659.00      601.00      522.00      482.00      409.00      370.00      395.00      346.00      277.00      253.00      241.00      257.00
307.00      316.00      352.00      385.00      391.00      461.00      438.00      421.00      431.00      420.00      447.00      466.00      529.00      623.00      627.00      654.00      658.00      690.00      778.00      828.00      811.00      748.00      675.00      652.00      608.00      562.00      585.00      543.00      544.00      532.00      493.00      472.00      448.00      423.00      378.00      372.00      323.00      318.00      383.00      391.00      331.00      329.00      325.00      310.01      310.02      332.00      356.00      370.00      379.00      370.00      366.00      341.00      310.00      284.00      302.00      296.00      244.00      241.07      249.00      278.00      282.00      338.00      401.00      453.00      445.00      476.00      472.00      514.00      551.00      497.00      533.00      602.00      541.00      549.00      555.00      524.00      486.00      534.00      560.00      587.00      538.00      558.00      488.00      457.00      410.00      330.00      294.00      270.01      270.01      272.00      265.01      285.00      296.00      339.00      379.00      369.00      350.00      314.00      315.00      347.00      401.00      471.00      489.00      471.00      523.00      549.00      514.00      461.00      427.00      425.00      405.00      449.00      430.00      460.00      385.00      365.00      359.00      373.00      357.00      345.00      364.00      347.00      393.00      383.00      354.00      383.00      443.00      507.00      637.00      654.00      571.00      500.00      439.00      374.00      328.00      331.00      280.00      262.00      251.00      223.00
365.00      368.00      393.00      409.00      462.00      515.00      489.00      452.00      438.00      431.00      445.00      472.00      537.00      555.00      578.00      618.00      656.00      729.00      796.00      749.00      741.00      692.00      647.00      587.00      591.00      544.00      532.00      543.00      500.00      504.00      497.00      505.00      499.00      444.00      365.00      330.00      305.00      316.00      342.00      329.00      314.00      301.01      310.00      328.00      373.00      391.00      398.00      406.00      397.00      362.00      371.00      365.00      300.00      268.00      261.00      253.00      241.06      261.00      276.00      287.00      288.00      350.00      387.00      454.00      473.00      497.00      548.00      555.00      492.00      524.00      611.00      645.00      606.00      640.00      554.00      519.00      562.00      632.00      618.00      544.00      482.00      433.00      406.00      413.00      387.00      335.00      283.00      283.00      270.00      271.00      265.00      284.00      307.00      378.00      393.00      316.00      322.00      296.00      341.00      321.00      368.00      443.00      532.00      467.00      500.00      535.00      515.00      476.00      461.00      465.00      423.00      459.00      445.00      421.00      364.00      358.02      358.02      381.00      396.00      350.00      338.02      363.00      358.00      358.00      343.00      401.00      465.00      491.00      534.00      586.00      546.00      517.00      455.00      414.00      351.00      325.00      269.00      257.00      236.00      229.00
368.00      433.00      428.00      491.00      486.00      464.00      455.00      442.00      431.01      434.00      461.00      485.00      494.00      505.00      510.00      576.00      684.00      726.00      705.00      682.00      669.00      626.00      632.00      562.00      549.00      534.00      484.00      508.00      480.00      476.00      491.00      470.00      454.00      461.00      388.00      332.00      296.06      296.05      296.04      303.00      301.00      334.00      336.00      360.00      423.00      453.00      424.00      403.00      417.00      371.00      329.00      318.00      324.00      307.00      283.00      241.05      241.05      277.00      311.00      314.00      361.00      410.00      391.00      382.00      464.00      545.00      499.00      486.00      469.00      533.00      655.00      715.00      714.00      678.00      589.00      593.00      629.00      599.00      566.00      523.00      454.00      392.00      380.00      383.00      348.00      310.00      286.00      277.00      262.01      262.01      272.00      285.00      322.00      357.00      397.00      332.00      297.00      290.00      289.00      323.00      390.00      480.00      519.00      460.00      487.00      488.00      414.00      408.00      427.00      430.00      449.00      464.00      464.00      419.00      383.00      376.00      358.01      372.00      354.00      341.00      338.02      338.01      340.00      331.02      331.02      361.00      445.00      508.00      511.00      535.00      505.00      498.00      464.00      430.00      394.00      357.00      285.00      301.00      259.00      275.00
