ncols         248
nrows         32
xllcorner     776166.62903
yllcorner     2648960.34204
cellsize      90.00000    
NODATA_value  -9999.00000 
157.00      180.00      180.00      156.00      154.01      154.00      156.00      157.00      156.00      153.00      149.00      148.05      149.00      151.00      153.00      157.00      166.00      164.00      176.00      190.00      198.00      219.00      246.00      253.00      254.00      232.00      221.00      246.00      275.00      290.00      308.00      340.00      338.00      323.00      328.00      322.00      320.00      340.00      357.00      378.00      371.00      355.00      361.00      358.00      360.00      386.00      379.00      380.00      402.00      405.00      384.00      365.00      368.00      374.00      437.00      456.00      471.00      500.00      516.00      517.00      516.00      525.00      539.00      550.00      533.00      503.00      468.00      446.00      445.00      416.00      397.00      387.00      389.00      377.00      353.00      334.00      324.00      316.00      297.00      273.00      262.00      246.00      234.01      234.00      243.00      250.00      262.00      256.00      263.00      234.00      250.00      289.00      319.00      326.00      312.00      288.00      261.00      245.00      259.00      276.00      286.00      260.00      283.00      308.00      319.00      328.00      348.00      334.00      327.00      344.00      387.00      427.00      438.00      401.00      357.00      330.00      312.00      301.00      287.00      268.00      253.00      256.00      275.00      271.00      241.00      220.00      213.00      203.00      204.00      222.00      235.00      210.00      200.00      223.00      241.00      266.00      288.00      282.00      269.00      288.00      301.00      321.00      318.00      292.00      277.00      281.00      283.00      306.00      318.00      332.00      328.00      293.00      268.01      278.00      301.00      309.00      298.00      311.00      347.00      365.00      383.00      394.00      405.00      420.00      433.00      447.00      448.00      459.00      483.00      514.00      520.00      506.00      505.00      482.00      474.00      497.00      513.00      512.00      469.00      426.00      395.00      367.00      351.00      351.00      353.00      340.00      336.00      320.00      315.04      315.03      315.02      315.02      320.00      353.00      380.00      385.00      389.00      395.00      383.00      358.00      345.00      328.00      319.00      319.01      320.00      320.01      350.00      368.00      377.00      380.00      387.00      400.00      405.00      407.00      410.00      420.00      467.00      492.00      480.00      459.00      441.00      432.00      419.00      406.00      414.00      437.00      464.00      509.00      563.00      594.00      611.00      623.00      617.00      603.00      585.00      573.00      574.00      566.00      570.00      556.00      548.00      529.00      535.00      538.00      528.00      520.00      522.00      517.00
157.01      169.00      178.00      157.00      155.00      158.00      158.00      156.00      155.00      156.00      153.00      151.00      154.00      155.00      154.00      153.01      155.00      158.00      177.00      186.00      184.00      213.00      228.00      231.00      247.00      218.00      220.00      248.00      255.00      264.00      300.00      338.00      326.00      291.00      302.00      286.00      320.00      329.00      333.00      338.00      344.00      335.00      327.00      330.00      347.00      369.00      367.00      378.00      385.00      381.00      370.00      337.01      352.00      379.00      403.00      421.00      455.00      472.00      493.00      519.00      521.00      505.00      520.00      536.00      524.00      493.00      451.00      419.00      425.00      432.00      405.00      374.00      367.00      369.00      357.00      328.00      313.00      303.00      286.00      265.00      258.00      262.00      259.00      261.00      278.00      280.00      290.00      282.00      261.00      245.00      278.00      313.00      344.00      346.00      308.00      273.00      254.00      251.00      273.00      291.00      290.00      274.00      293.00      314.00      320.00      342.00      367.00      368.00      351.00      351.00      382.00      429.00      442.00      411.00      372.00      356.00      333.00      309.00      277.00      287.00      303.00      288.00      278.00      274.00      242.00      212.00      203.01      203.01      218.00      241.00      246.00      217.00      200.01      200.01      221.00      252.00      261.00      243.00      242.00      255.00      275.00      303.00      329.00      318.00      309.00      304.00      293.00      311.00      326.00      315.00      299.00      270.00      268.02      293.00      328.00      338.00      318.00      304.00      322.00      338.00      355.00      372.00      388.00      398.00      401.00      413.00      443.00      480.00      504.00      531.00      531.00      520.00      519.00      489.00      482.00      507.00      522.00      502.00      449.00      407.00      380.00      360.00      340.00      333.00      334.00      333.00      322.00      315.05      315.04      315.03      315.03      322.00      328.00      349.00      362.00      361.01      372.00      394.00      399.00      388.00      372.00      339.00      347.00      345.00      335.00      336.00      342.00      353.00      356.00      368.00      374.00      379.00      379.00      384.00      386.00      389.00      452.00      478.00      478.00      460.00      429.00      421.00      419.00      406.01      415.00      428.00      455.00      510.00      561.00      588.00      597.00      595.00      595.00      580.00      562.00      551.00      548.00      548.00      566.00      551.00      538.00      520.00      518.00      518.00      524.00      539.00      548.00      549.00
163.00      182.00      182.00      160.00      156.00      158.00      159.00      158.00      159.00      160.00      160.00      157.00      162.00      163.00      160.00      158.00      154.00      155.00      168.00      172.00      181.00      198.00      215.00      238.00      248.00      227.00      217.00      228.00      232.00      266.00      310.00      329.00      321.00      284.00      275.00      272.00      304.00      299.00      301.00      318.00      335.00      313.00      304.00      335.00      365.00      370.00      357.00      371.00      368.00      351.00      337.00      340.00      380.00      410.00      428.00      441.00      443.00      467.00      501.00      516.00      497.00      482.00      498.00      519.00      512.00      483.00      453.00      421.00      406.00      409.00      400.00      383.00      366.00      349.00      344.00      336.00      317.00      297.00      280.00      284.00      293.00      297.00      294.00      295.00      314.00      312.00      310.00      285.00      261.00      276.00      306.00      332.00      351.00      332.00      296.00      275.00      266.00      263.00      274.00      298.00      293.00      297.00      326.00      345.00      338.00      354.00      389.00      400.00      384.00      379.00      384.00      426.00      427.00      394.00      364.00      347.00      329.00      288.00      290.00      317.00      331.00      308.00      280.00      257.00      229.00      222.00      214.00      215.00      229.00      244.00      251.00      222.00      200.02      200.02      209.00      232.00      228.00      215.00      227.00      245.00      279.00      307.00      327.00      330.00      336.00      330.00      313.00      317.00      307.00      290.00      275.00      280.00      298.00      314.00      344.00      359.00      325.00      304.01      306.00      324.00      330.00      355.00      369.00      367.00      385.00      414.00      446.00      484.00      515.00      535.00      536.00      541.00      531.00      505.00      497.00      505.00      519.00      494.00      439.00      397.00      370.00      349.00      330.00      322.02      322.01      322.00      315.06      315.05      315.04      315.04      324.00      338.00      329.00      345.00      362.00      361.00      372.00      393.00      407.00      411.00      383.00      357.00      369.00      373.00      366.00      364.00      349.00      351.00      351.01      351.02      358.00      358.00      361.00      365.00      369.00      388.00      424.00      466.00      489.00      468.00      429.00      421.00      426.00      414.00      421.00      436.00      473.00      529.00      568.00      571.00      555.00      551.00      555.00      539.00      529.00      520.00      525.00      542.00      563.00      551.00      531.00      517.00      504.00      500.00      511.00      523.00      533.00      554.00
187.00      199.00      185.00      168.00      160.00      158.00      162.00      162.00      163.00      169.00      171.00      167.00      167.00      169.00      169.00      168.00      173.00      165.00      162.00      169.00      179.00      200.00      216.00      224.00      232.00      225.00      195.00      201.00      226.00      267.00      292.00      302.00      304.00      288.00      262.00      259.00      276.00      275.00      288.00      318.00      319.00      289.00      307.00      355.00      371.00      354.00      349.00      366.00      357.00      323.00      322.00      355.00      372.00      383.00      407.00      418.00      444.00      480.00      511.00      504.00      474.00      460.00      485.00      496.00      484.00      456.00      438.00      420.00      398.00      378.00      365.00      367.00      360.00      338.00      337.00      334.00      313.00      293.00      289.00      313.00      332.00      334.00      333.00      325.00      346.00      341.00      318.00      285.00      284.00      307.00      305.00      329.00      345.00      331.00      297.00      285.00      284.00      276.00      279.00      299.00      301.00      315.00      352.00      367.00      362.00      369.00      393.00      414.00      414.00      407.00      400.00      416.00      402.00      382.00      390.00      377.00      343.00      305.00      328.00      339.00      320.00      288.00      254.00      239.00      243.00      259.00      244.00      223.00      242.00      253.00      250.00      222.00      200.03      200.03      200.03      204.00      206.00      223.00      249.00      276.00      308.00      333.00      342.00      351.00      354.00      341.00      333.00      313.00      283.00      275.01      275.01      295.00      314.00      326.00      349.00      370.00      339.00      319.00      326.00      342.00      342.00      341.00      350.00      366.00      397.00      425.00      444.00      469.00      503.00      531.00      543.00      553.00      529.00      515.00      516.00      502.00      489.00      464.00      420.00      382.00      365.00      343.00      322.03      322.02      331.00      329.00      320.00      321.00      325.00      324.00      335.00      349.00      330.00      339.00      355.00      364.00      376.00      389.00      400.00      393.00      378.00      359.00      374.00      392.00      383.00      368.00      375.00      379.00      363.00      351.02      351.03      357.00      357.01      358.00      374.00      393.00      423.00      462.00      486.00      476.00      449.00      445.00      445.00      429.00      446.00      471.00      500.00      546.00      550.00      526.00      510.00      510.00      515.00      499.00      485.00      487.00      504.00      526.00      544.00      533.00      511.00      497.00      490.00      500.00      507.00      507.01      517.00      545.00
210.00      206.00      179.00      168.00      164.00      158.01      160.00      165.00      168.00      179.00      182.00      177.00      178.00      183.00      183.00      184.00      202.00      197.00      182.00      162.01      167.00      178.00      188.00      188.00      204.00      194.00      185.01      189.00      221.00      242.00      258.00      274.00      282.00      270.00      250.01      250.02      256.00      272.00      290.00      308.00      294.00      276.00      309.00      347.00      350.00      333.00      332.00      335.00      318.00      298.00      309.00      338.00      344.00      361.00      386.00      425.00      468.00      487.00      492.00      481.00      450.00      440.00      465.00      478.00      475.00      444.00      413.00      397.00      387.00      378.00      354.00      340.00      337.02      337.01      340.00      336.00      318.00      325.00      332.00      338.00      364.00      382.00      372.00      355.00      363.00      356.00      318.00      290.00      307.00      327.00      305.01      312.00      336.00      337.00      320.00      316.00      310.00      300.00      308.00      309.00      311.00      337.00      374.00      393.00      394.00      394.00      396.00      421.00      443.00      429.00      418.00      423.00      407.00      404.00      411.00      380.00      330.00      322.00      334.00      324.00      294.00      269.00      252.00      256.00      272.00      285.00      249.00      234.00      251.00      252.00      227.00      205.00      200.04      200.04      200.04      200.04      212.00      244.00      283.00      316.00      346.00      365.00      360.00      355.00      342.00      323.00      322.00      308.00      289.00      293.00      291.00      292.00      305.00      322.00      353.00      380.00      368.00      352.00      350.00      364.00      356.00      341.01      359.00      376.00      388.00      416.00      437.00      462.00      489.00      508.00      531.00      545.00      528.00      523.00      503.00      480.00      460.00      435.00      407.00      369.00      345.00      331.00      325.00      338.00      357.00      358.00      347.00      335.00      331.00      336.00      344.00      351.00      330.01      330.01      340.00      362.00      372.00      373.00      385.00      393.00      390.00      361.00      373.00      387.00      389.00      388.00      386.00      370.00      355.00      351.03      351.03      361.00      375.00      382.00      392.00      406.00      426.00      451.00      477.00      471.00      456.00      463.00      461.00      452.00      462.00      496.00      520.00      533.00      511.00      493.00      484.00      476.00      484.00      476.00      457.00      462.00      474.00      493.00      515.00      502.00      482.00      469.00      485.00      512.00      523.00      529.00      537.00      555.00
206.00      197.00      177.00      170.00      160.00      158.02      161.00      171.00      182.00      191.00      199.00      206.00      193.00      203.00      206.00      201.00      215.00      228.00      227.00      193.00      168.00      167.01      167.02      172.00      184.00      185.00      185.01      185.02      202.00      226.00      249.00      259.00      252.00      250.00      250.01      250.02      250.03      270.00      277.00      278.00      270.00      284.00      306.00      323.00      320.00      307.00      296.00      295.01      295.02      306.00      323.00      334.00      353.00      386.00      416.00      448.00      464.00      462.00      462.00      447.00      424.00      417.00      445.00      462.00      456.00      433.00      409.00      390.00      374.00      367.00      361.00      347.00      337.02      347.00      365.00      371.00      355.00      377.00      382.00      373.00      388.00      403.00      390.00      374.00      365.00      351.00      317.00      294.00      321.00      332.00      308.00      324.00      345.00      351.00      356.00      357.00      340.00      337.00      354.00      347.00      335.00      346.00      381.00      409.00      424.00      413.00      403.00      427.00      461.00      446.00      418.00      402.00      409.00      419.00      399.00      364.00      334.00      323.00      318.00      305.00      302.00      300.00      295.00      286.00      286.00      287.00      256.00      252.00      249.00      230.00      201.00      200.05      200.05      200.05      200.05      201.00      229.00      251.00      293.00      331.00      363.00      371.00      347.00      326.00      312.00      296.00      292.00      296.00      303.00      312.00      295.00      297.00      328.00      345.00      369.00      396.00      409.00      388.00      371.00      361.00      345.00      353.00      381.00      400.00      415.00      428.00      444.00      470.00      466.00      483.00      516.00      531.00      533.00      512.00      479.00      457.00      445.00      414.00      391.00      356.00      331.01      338.00      354.00      366.00      385.00      379.00      363.00      348.00      334.00      337.00      351.00      346.00      330.02      340.00      338.00      347.00      358.00      373.00      392.00      400.00      392.00      361.01      361.01      375.00      390.00      390.00      366.00      356.00      351.04      355.00      361.00      372.00      386.00      398.00      405.00      405.00      415.00      441.00      470.00      480.00      468.00      476.00      482.00      473.00      475.00      485.00      496.00      497.00      482.00      470.00      458.00      452.00      460.00      456.00      446.00      445.00      450.00      468.00      485.00      474.00      466.00      459.00      490.00      506.00      525.00      544.00      547.00      563.00
199.00      201.00      196.00      179.00      163.00      161.00      166.00      183.00      202.00      210.00      226.00      226.00      221.00      235.00      236.00      225.00      226.00      260.00      270.00      233.00      192.00      176.00      168.00      185.00      212.00      225.00      223.00      195.00      206.00      236.00      244.00      240.00      245.00      269.00      281.00      253.00      250.03      251.00      253.00      250.06      253.00      273.00      288.00      293.00      290.00      290.01      295.00      304.00      312.00      325.00      342.00      347.00      362.00      390.00      425.00      435.00      426.00      420.00      416.00      417.00      416.00      408.00      423.00      431.00      430.00      411.00      393.00      375.00      368.00      372.00      387.00      373.00      372.00      382.00      377.00      380.00      374.00      394.00      403.00      400.00      397.00      390.00      383.00      381.00      369.00      338.00      307.00      295.00      325.00      333.00      319.00      341.00      364.00      375.00      392.00      390.00      363.00      368.00      393.00      391.00      366.00      355.00      370.00      408.00      439.00      446.00      431.00      446.00      454.00      441.00      410.00      385.00      394.00      395.00      379.00      341.00      322.01      322.00      330.00      335.00      343.00      336.00      320.00      317.00      314.00      290.00      274.00      253.00      228.00      210.00      200.06      200.06      200.06      205.00      200.06      205.00      229.00      246.00      278.00      320.00      349.00      345.00      321.00      293.00      280.00      265.00      265.00      286.00      306.00      316.00      309.00      307.00      340.00      355.00      381.00      409.00      433.00      395.00      361.00      345.01      345.01      352.00      381.00      406.00      436.00      452.00      467.00      472.00      450.00      461.00      475.00      489.00      516.00      495.00      465.00      445.00      428.00      409.00      377.00      357.00      355.00      379.00      398.00      412.00      424.00      404.00      368.00      359.00      344.00      338.00      348.00      335.00      335.00      356.00      346.00      348.00      365.00      383.00      396.00      392.00      382.00      365.00      361.02      361.02      382.00      383.00      369.00      360.00      361.00      371.00      375.00      372.00      382.00      405.00      423.00      427.00      436.00      453.00      473.00      468.00      473.00      477.00      477.00      476.00      473.01      479.00      480.00      466.00      458.00      445.00      437.00      440.00      442.00      431.00      429.00      425.00      434.00      455.00      450.00      451.00      446.00      463.00      492.00      486.00      511.00      530.00      533.00      556.00
211.00      216.00      200.00      177.00      166.00      163.00      169.00      197.00      229.00      248.00      261.00      255.00      264.00      281.00      280.00      263.00      252.00      273.00      293.00      261.00      218.00      203.00      196.00      200.00      233.00      260.00      240.00      198.00      213.00      229.00      224.01      232.00      269.00      302.00      296.00      262.00      250.04      250.04      250.05      250.06      250.07      252.00      273.00      289.00      292.00      301.00      319.00      331.00      319.00      315.00      334.00      357.00      378.00      393.00      400.00      408.00      398.00      373.00      387.00      408.00      420.00      392.00      398.00      418.00      416.00      412.00      401.00      389.00      386.00      388.00      408.00      411.00      415.00      413.00      404.00      397.00      379.00      374.01      374.02      387.00      395.00      394.00      388.00      377.00      367.00      337.00      307.00      296.00      319.00      340.00      342.00      344.00      375.00      393.00      412.00      414.00      385.00      383.00      417.00      427.00      402.00      384.00      381.00      405.00      438.00      463.00      473.00      463.00      434.00      410.00      386.00      372.00      362.00      356.00      345.00      322.02      322.01      346.00      360.00      373.00      383.00      359.00      323.00      315.00      304.00      293.00      271.00      238.00      216.00      207.00      203.00      201.00      221.00      245.00      232.00      208.00      211.00      235.00      264.00      305.00      321.00      302.00      289.00      273.00      248.00      240.00      258.00      299.00      321.00      332.00      336.00      316.00      329.00      358.00      404.00      434.00      435.00      388.00      356.00      345.02      345.02      348.00      368.00      401.00      440.00      467.00      471.00      460.00      433.00      431.00      440.00      471.00      493.00      477.00      444.00      429.00      401.00      381.00      368.00      371.00      390.00      420.00      453.00      465.00      458.00      425.00      382.00      370.00      352.00      343.00      341.00      335.01      343.00      363.00      361.00      361.00      385.00      401.00      405.00      404.00      401.00      381.00      369.00      361.03      375.00      387.00      370.00      366.00      378.00      393.00      395.00      399.00      414.00      427.00      437.00      446.00      453.00      454.00      462.00      468.00      475.00      473.01      473.02      476.00      490.00      489.00      469.00      444.00      434.00      424.00      417.00      431.00      429.00      410.00      406.00      412.00      428.00      441.00      429.01      433.00      435.00      459.00      468.00      463.00      482.00      499.00      513.00      534.00
214.00      221.00      199.00      178.00      168.00      164.00      185.00      219.00      266.00      289.00      310.00      305.00      310.00      322.00      319.00      312.00      294.00      289.00      300.00      270.00      235.00      225.00      220.00      213.00      228.00      256.00      245.00      211.00      210.00      224.00      247.00      268.00      286.00      307.00      304.00      272.00      250.05      250.05      250.05      250.06      250.07      266.00      292.00      302.00      290.00      299.00      323.00      333.00      306.00      303.00      337.00      372.00      392.00      389.00      374.00      374.00      372.00      350.00      372.00      394.00      396.00      374.00      389.00      418.00      420.00      428.00      424.00      423.00      415.00      412.00      436.00      445.00      441.00      428.00      415.00      389.00      374.02      374.02      374.02      374.03      381.00      396.00      394.00      374.00      358.00      351.00      326.00      305.00      325.00      357.00      370.00      368.00      382.00      394.00      417.00      421.00      396.00      398.00      433.00      449.00      432.00      419.00      403.00      413.00      449.00      487.00      491.00      454.00      414.00      381.00      364.00      356.00      336.00      325.00      322.03      322.02      334.00      371.00      399.00      409.00      400.00      355.00      297.00      279.00      272.00      261.00      257.00      235.00      222.00      217.00      210.00      206.00      234.00      268.00      253.00      224.00      208.01      229.00      260.00      287.00      287.00      266.00      257.00      248.00      225.00      227.00      261.00      311.00      340.00      356.00      355.00      329.00      331.00      362.00      422.00      443.00      411.00      380.00      379.00      384.00      360.00      345.03      359.00      391.00      422.00      448.00      444.00      430.00      423.00      426.00      433.00      457.00      463.00      466.00      440.00      409.00      384.00      381.00      399.00      402.00      418.00      452.00      484.00      498.00      468.00      432.00      394.00      373.00      359.00      355.00      340.00      335.02      346.00      367.00      373.00      369.00      387.00      411.00      424.00      435.00      420.00      393.00      392.00      372.00      369.00      380.00      386.00      397.00      401.00      415.00      422.00      434.00      450.00      462.00      458.00      461.00      463.00      458.00      460.00      462.00      473.00      482.00      494.00      481.00      484.00      485.00      483.00      460.00      439.00      425.00      411.00      414.00      419.00      398.00      395.00      414.00      440.00      429.00      430.00      442.00      457.00      458.00      458.01      458.02      466.00      475.00      489.00      510.00
218.00      211.00      199.00      184.00      171.00      168.00      185.00      204.00      283.00      312.00      332.00      322.00      313.00      330.00      337.00      338.00      329.00      309.00      292.00      256.00      240.00      233.00      237.00      223.00      223.00      255.00      274.00      255.00      248.00      257.00      290.00      296.00      281.00      290.00      291.00      272.00      256.00      250.06      250.06      250.06      266.00      288.00      305.00      295.00      273.00      289.00      322.00      320.00      292.00      310.00      342.00      357.00      367.00      362.00      343.00      333.00      337.00      326.00      349.00      362.00      371.00      366.00      399.00      416.00      429.00      458.00      460.00      449.00      445.00      441.00      460.00      462.00      437.00      414.00      393.00      374.03      374.03      374.03      374.03      374.03      374.04      387.00      391.00      383.00      378.00      365.00      328.00      314.00      340.00      370.00      392.00      398.00      397.00      406.00      413.00      419.00      405.00      412.00      442.00      462.00      468.00      457.00      423.00      423.00      456.00      493.00      487.00      458.00      425.00      388.00      387.00      364.00      329.00      323.00      322.03      322.03      339.00      374.00      399.00      395.00      369.00      329.00      291.00      277.00      259.00      243.00      262.00      257.00      240.00      221.00      206.01      206.01      241.00      272.00      261.00      238.00      209.00      223.00      257.00      260.00      256.00      240.00      229.00      219.00      216.00      227.00      250.00      301.00      349.00      368.00      379.00      365.00      356.00      370.00      420.00      437.00      410.00      400.00      409.00      412.00      389.00      367.00      362.00      376.00      404.00      428.00      423.00      413.01      413.00      418.00      426.00      444.00      466.00      475.00      442.00      407.00      399.00      424.00      442.00      439.00      452.00      479.00      509.00      511.00      476.00      442.00      397.00      377.00      363.00      355.00      347.00      347.00      354.00      371.00      378.00      375.00      380.00      405.00      427.00      444.00      426.00      406.00      411.00      382.00      372.00      390.00      411.00      429.00      430.00      430.00      439.00      457.00      474.00      476.00      473.00      483.00      486.00      474.00      460.00      461.00      474.00      493.00      492.00      462.00      451.00      461.00      475.00      473.00      458.00      433.00      415.00      400.00      394.00      389.00      398.00      413.00      428.00      422.00      443.00      470.00      489.00      478.00      464.00      471.00      479.00      480.00      485.00      497.00
234.00      216.00      205.00      187.00      171.00      171.00      186.00      215.00      276.00      302.00      328.00      316.00      310.00      325.00      325.00      339.00      339.00      325.00      295.00      272.00      271.00      268.00      241.00      223.01      223.01      257.00      280.00      282.00      276.00      276.00      304.00      310.00      281.00      279.01      279.00      276.00      258.00      250.07      250.07      250.07      278.00      291.00      281.00      274.00      272.00      302.00      320.00      303.00      289.00      315.00      324.00      322.00      323.00      326.00      313.00      300.00      305.00      311.00      320.00      332.00      346.00      356.00      369.00      396.00      433.00      461.00      475.00      478.00      478.00      469.00      461.00      439.00      409.00      387.00      377.00      386.00      400.00      398.00      377.00      374.04      377.00      381.00      385.00      396.00      393.00      362.00      329.00      319.00      347.00      374.00      408.00      427.00      432.00      430.00      425.00      420.00      418.00      423.00      451.00      485.00      506.00      492.00      458.00      446.00      468.00      490.00      472.00      451.00      432.00      402.00      385.00      353.00      329.00      324.00      322.04      328.00      346.00      373.00      390.00      365.00      335.00      303.00      283.00      270.00      263.00      241.00      236.00      241.00      217.00      206.02      206.02      221.00      244.00      268.00      260.00      233.00      209.01      216.00      243.00      234.00      228.00      219.00      210.00      211.00      227.00      233.00      240.00      280.00      338.00      375.00      403.00      404.00      388.00      384.00      409.00      436.00      435.00      433.00      452.00      449.00      417.00      400.00      386.00      391.00      407.00      416.00      421.00      426.00      414.00      411.00      412.00      439.00      468.00      468.00      439.00      430.00      432.00      454.00      467.00      470.00      481.00      496.00      524.00      524.00      494.00      448.00      402.00      377.00      363.00      361.00      365.00      372.00      369.00      388.00      390.00      384.00      381.00      396.00      423.00      445.00      431.00      425.00      419.00      401.00      390.00      411.00      450.00      467.00      459.00      454.00      465.00      490.00      488.00      470.00      468.00      475.00      479.00      465.00      447.00      448.00      457.00      465.00      470.00      460.00      442.00      444.00      456.00      462.00      454.00      439.00      423.00      400.00      379.03      382.00      400.00      409.00      414.00      431.00      456.00      485.00      497.00      484.00      468.00      476.00      490.00      501.00      508.00      506.00
235.00      217.00      201.00      185.00      172.00      171.01      184.00      236.00      265.00      307.00      325.00      304.00      301.00      310.00      306.00      318.00      334.00      333.00      315.00      297.00      283.00      265.00      233.00      223.02      227.00      262.00      277.00      268.00      279.00      294.00      314.00      310.00      287.00      284.00      291.00      284.00      256.00      250.08      250.08      252.00      281.00      281.00      258.04      259.00      284.00      312.00      309.00      286.00      286.00      300.00      292.00      283.00      284.00      287.00      280.00      281.00      285.00      291.00      295.00      306.00      326.00      339.00      357.00      396.00      423.00      446.00      477.00      502.00      501.00      475.00      440.00      412.00      397.00      405.00      415.00      434.00      433.00      415.00      385.00      386.00      397.00      396.00      384.00      385.00      380.00      356.00      340.00      340.00      362.00      381.00      419.00      452.00      466.00      456.00      450.00      429.00      431.00      442.00      473.00      513.00      543.00      527.00      501.00      493.00      484.00      477.00      447.00      428.00      411.00      384.00      362.00      350.00      337.00      327.00      328.00      343.00      368.00      401.00      423.00      394.00      364.00      338.00      293.00      259.00      244.00      234.00      222.00      219.00      206.03      206.03      232.00      261.00      265.00      269.00      264.00      242.00      209.02      209.02      225.00      217.00      209.05      209.06      217.00      222.00      234.00      244.00      253.00      279.00      323.00      374.00      414.00      432.00      418.00      400.00      414.00      435.00      442.00      450.00      469.00      472.00      450.00      436.00      417.00      396.00      391.01      403.00      427.00      436.00      412.00      409.02      412.00      434.00      460.00      475.00      477.00      473.00      453.00      465.00      489.00      497.00      509.00      525.00      554.00      544.00      499.00      441.00      396.00      384.00      388.00      391.00      399.00      392.00      380.00      398.00      403.00      399.00      394.00      404.00      424.00      444.00      442.00      449.00      448.00      439.00      426.00      441.00      474.00      490.00      483.00      487.00      501.00      516.00      497.00      460.00      454.00      453.00      448.00      438.00      440.00      459.00      457.00      446.00      465.00      463.00      444.00      430.00      444.00      443.00      436.00      439.00      426.00      400.00      379.02      381.00      386.00      391.00      418.00      454.00      476.00      489.00      490.00      464.00      457.00      469.00      492.00      521.00      533.00      535.00
238.00      220.00      202.00      189.00      181.00      171.02      176.00      212.00      247.00      297.00      296.00      288.00      297.00      301.00      302.00      314.00      321.00      325.00      328.00      298.00      260.00      244.00      235.00      223.03      223.03      248.00      248.00      247.00      266.00      292.00      327.00      324.00      310.00      313.00      297.00      275.00      260.00      250.09      250.09      258.00      272.00      266.00      258.03      258.04      275.00      288.00      282.00      269.00      271.00      272.00      266.06      266.07      266.08      266.09      266.10      269.00      272.00      279.00      290.00      302.00      315.00      331.00      356.00      393.00      420.00      452.00      489.00      510.00      481.00      446.00      424.00      421.00      429.00      439.00      448.00      462.00      432.00      403.00      390.00      408.00      403.00      398.00      391.00      374.00      360.00      353.00      353.00      368.00      382.00      395.00      423.00      458.00      476.00      473.00      457.00      436.00      437.00      458.00      494.00      540.00      571.00      563.00      549.00      527.00      485.00      450.00      429.00      399.00      379.00      371.00      366.00      371.00      356.00      347.00      347.00      359.00      398.00      439.00      453.00      442.00      410.00      358.00      295.00      275.00      261.00      241.00      229.00      208.00      206.04      216.00      256.00      287.00      292.00      283.00      264.00      238.00      211.00      209.03      209.03      209.04      215.00      220.00      241.00      229.00      231.00      256.00      273.00      291.00      315.00      358.00      419.00      451.00      436.00      422.00      424.00      421.00      422.00      437.00      453.00      451.00      441.00      443.00      428.00      415.00      397.00      403.00      418.00      409.00      409.01      420.00      424.00      433.00      454.00      482.00      509.00      510.00      482.00      479.00      503.00      530.00      545.00      561.00      572.00      531.00      472.00      432.00      418.00      432.00      431.00      428.00      431.00      408.00      387.00      402.00      406.00      414.00      413.00      425.00      437.00      450.00      455.00      471.00      480.00      464.00      458.00      467.00      495.00      503.00      511.00      528.00      529.00      530.00      509.00      469.00      449.00      437.00      422.00      421.00      429.00      445.00      438.00      438.00      464.00      452.00      436.00      425.00      425.00      420.00      415.00      411.00      401.00      387.00      379.01      381.00      386.00      398.00      422.00      456.00      476.00      476.00      476.00      452.00      460.00      478.00      500.00      521.00      538.00      546.00
238.00      228.00      214.00      201.00      202.00      181.00      179.00      194.00      222.00      257.00      268.00      274.00      278.00      289.00      307.00      316.00      303.00      297.00      298.00      282.00      261.00      244.00      223.04      223.04      223.04      226.00      246.00      276.00      287.00      303.00      338.00      345.00      341.00      334.00      307.00      284.00      266.00      264.00      276.00      273.00      258.01      258.02      258.03      268.00      266.00      266.01      266.02      266.03      266.04      266.05      266.06      270.00      277.00      271.00      275.00      271.00      273.00      275.00      300.00      337.00      348.00      358.00      391.00      423.00      456.00      480.00      498.00      493.00      463.00      448.00      452.00      450.00      449.00      464.00      463.00      451.00      424.00      406.00      405.00      418.00      423.00      413.00      420.00      413.00      388.00      370.00      360.00      379.00      406.00      423.00      437.00      453.00      463.00      473.00      459.00      441.00      445.00      465.00      503.00      547.00      585.00      591.00      570.00      525.00      474.00      437.00      409.00      388.00      394.00      408.00      412.00      412.00      394.00      382.00      374.00      376.00      403.00      426.00      423.00      421.00      392.00      340.00      317.00      307.00      267.00      264.00      244.00      212.00      206.05      227.00      261.00      282.00      288.00      277.00      259.00      231.00      209.04      209.04      209.04      228.00      244.00      238.00      259.00      248.00      252.00      264.00      277.00      299.00      322.00      356.00      411.00      437.00      426.00      417.00      412.00      400.00      392.00      409.00      416.00      411.00      422.00      439.00      423.00      423.00      405.00      397.01      400.00      410.00      425.00      442.00      433.00      437.00      465.00      500.00      540.00      539.00      513.00      519.00      532.00      553.00      581.00      596.00      584.00      523.00      466.00      458.00      469.00      476.00      469.00      458.00      448.00      416.00      404.00      409.00      409.00      421.00      431.00      446.00      458.00      476.00      475.00      485.00      494.00      480.00      486.00      497.00      516.00      529.00      540.00      539.00      521.00      514.00      503.00      478.00      452.00      431.00      423.00      413.00      412.00      426.00      422.00      436.00      447.00      447.00      426.00      425.00      415.00      404.00      383.00      379.00      381.00      379.00      384.00      401.00      405.00      409.00      425.00      454.00      461.00      457.00      450.00      451.00      470.00      484.00      491.00      503.00      511.00      520.00
241.00      241.00      223.00      216.00      211.00      202.00      197.00      187.00      211.00      228.00      242.00      265.00      283.00      292.00      293.00      295.00      298.00      282.00      273.00      261.00      254.00      230.00      223.05      233.00      245.00      235.00      254.00      284.00      300.00      310.00      349.00      371.00      368.00      342.00      308.00      277.00      264.01      290.00      296.00      274.00      258.02      258.02      272.00      292.00      277.00      266.01      266.02      266.03      266.04      266.05      273.00      292.00      302.00      291.00      303.00      304.00      300.00      294.00      307.00      334.00      362.00      396.00      436.00      472.00      500.00      499.00      485.00      480.00      481.00      488.00      480.00      472.00      459.00      469.00      457.00      431.00      428.00      426.00      424.00      433.00      448.00      450.00      446.00      448.00      428.00      391.00      370.00      379.00      400.00      431.00      451.00      446.00      449.00      468.00      466.00      451.00      458.00      478.00      509.00      554.00      590.00      589.00      557.00      507.00      456.00      423.00      404.00      410.00      437.00      464.00      476.00      457.00      426.00      399.00      393.00      399.00      402.00      385.00      377.00      387.00      371.00      361.00      352.00      317.00      277.00      278.00      251.00      219.00      206.06      226.00      256.00      262.00      257.00      244.00      238.00      226.00      209.05      209.05      209.05      227.00      252.00      263.00      286.00      286.00      290.00      279.00      268.00      293.00      331.00      361.00      392.00      401.00      397.00      392.00      391.00      390.00      372.00      379.00      386.00      397.00      420.00      424.00      408.00      406.00      408.00      403.00      415.00      442.00      462.00      465.00      445.00      457.00      491.00      525.00      560.00      569.00      560.00      555.00      564.00      579.00      607.00      619.00      577.00      528.00      509.00      507.00      504.00      504.00      492.00      469.00      437.00      420.00      427.00      422.00      422.00      429.00      446.00      458.00      478.00      500.00      493.00      496.00      502.00      502.00      514.00      521.00      535.00      550.00      551.00      544.00      526.00      516.00      500.00      478.00      457.00      448.00      436.00      418.00      409.02      409.01      410.00      426.00      421.00      436.00      418.00      421.00      409.00      387.00      370.00      362.01      362.01      369.00      396.00      409.00      419.00      432.00      438.00      452.00      452.00      436.00      438.00      460.00      468.00      464.00      468.00      482.00      479.00      495.00
248.00      255.00      237.00      229.00      229.00      231.00      216.00      187.01      192.00      208.00      240.00      265.00      278.00      272.00      276.00      295.00      296.00      283.00      274.00      251.00      229.00      223.06      238.00      267.00      278.00      254.00      253.00      271.00      280.00      298.00      328.00      367.00      375.00      349.00      312.00      282.00      291.00      311.00      286.00      264.00      270.00      288.00      294.00      294.00      273.00      266.02      266.02      266.03      267.00      281.00      299.00      318.00      318.00      304.00      320.00      344.00      356.00      330.00      316.00      316.00      326.00      398.00      443.00      500.00      500.00      483.00      476.00      485.00      493.00      500.00      491.00      491.00      492.00      469.00      449.00      449.00      456.00      463.00      460.00      440.00      453.00      471.00      470.00      470.00      452.00      414.00      394.00      387.00      397.00      425.00      437.00      431.00      452.00      466.00      465.00      473.00      485.00      501.00      527.00      568.00      584.00      555.00      526.00      493.00      452.00      430.00      410.00      430.00      463.00      494.00      493.00      454.00      411.00      370.00      361.00      369.00      367.00      346.00      349.00      379.00      388.00      380.00      353.00      322.00      304.00      286.00      269.00      233.00      206.07      213.00      236.00      236.00      238.00      233.00      219.00      215.00      209.06      209.06      209.06      215.00      241.00      278.00      291.00      291.00      305.00      301.00      277.00      288.00      320.00      360.00      388.00      381.00      368.00      367.00      366.00      368.00      368.00      380.00      384.00      389.00      399.00      399.01      399.02      405.00      422.00      430.00      430.00      449.00      475.00      478.00      468.00      470.00      489.00      516.00      555.00      591.00      599.00      592.00      594.00      611.00      639.00      639.00      592.00      555.00      543.00      538.00      541.00      528.00      500.00      472.00      450.00      452.00      457.00      448.00      446.00      457.00      465.00      474.00      494.00      512.00      514.00      520.00      527.00      530.00      538.00      547.00      549.00      568.00      562.00      561.00      551.00      532.00      513.00      484.00      466.00      460.00      448.00      431.00      421.00      410.00      409.00      408.00      403.00      423.00      397.00      412.00      413.00      388.00      369.00      362.00      374.00      382.00      379.00      398.00      417.00      416.00      418.00      430.00      420.00      423.00      441.00      458.00      450.00      442.00      457.00      454.00      465.00      488.00
240.00      257.00      258.00      253.00      243.00      236.00      220.00      187.02      187.02      197.00      238.00      260.00      262.00      241.00      260.00      295.00      311.00      307.00      278.00      245.00      223.07      228.00      259.00      286.00      299.00      274.00      264.00      282.00      281.00      297.00      318.00      356.00      360.00      333.00      298.00      292.00      320.00      323.00      297.00      297.00      310.00      322.00      303.00      274.00      266.03      266.03      266.03      266.03      278.00      297.00      319.00      335.00      329.00      321.00      340.00      376.00      392.00      363.00      345.00      332.00      343.00      396.00      439.00      472.00      478.00      461.00      454.00      457.00      464.00      468.00      464.00      493.00      504.00      478.00      470.00      471.00      475.00      480.00      478.00      465.00      463.00      475.00      492.00      490.00      455.00      421.00      423.00      416.00      405.00      411.00      420.00      433.00      452.00      464.00      477.00      498.00      529.00      550.00      563.00      569.00      558.00      533.00      517.00      489.00      466.00      458.00      428.00      438.00      471.00      493.00      483.00      429.00      388.00      351.00      333.00      324.00      326.00      318.00      336.00      363.00      376.00      368.00      350.00      322.00      297.00      256.00      249.00      230.00      209.00      211.00      217.00      216.00      220.00      220.00      210.00      209.07      216.00      222.00      224.00      231.00      231.00      264.00      260.00      261.00      291.00      304.00      295.00      307.00      338.00      371.00      387.00      372.00      350.00      350.00      350.00      363.00      386.00      410.00      402.00      390.00      404.00      406.00      411.00      419.00      437.00      446.00      458.00      470.00      499.00      516.00      517.00      513.00      518.00      548.00      584.00      612.00      634.00      618.00      629.00      645.00      662.00      635.00      593.00      578.00      585.00      589.00      575.00      550.00      514.00      483.00      482.00      492.00      485.00      476.00      482.00      490.00      494.00      506.00      521.00      537.00      551.00      560.00      560.00      559.00      566.00      570.00      564.00      572.00      568.00      566.00      553.00      527.00      511.00      496.00      492.00      482.00      467.00      450.00      443.00      431.00      413.00      400.00      394.00      405.00      382.00      390.00      391.00      363.00      361.02      376.00      398.00      403.00      384.00      394.00      404.00      404.01      404.02      408.00      415.00      420.00      429.00      445.00      439.00      431.00      442.00      443.00      459.00      484.00
229.00      253.00      271.00      270.00      251.00      228.00      212.00      199.00      195.00      195.00      224.00      241.00      232.00      228.00      263.00      291.00      303.00      306.00      284.00      252.00      238.00      248.00      263.00      294.00      325.00      313.00      277.00      278.00      294.00      313.00      327.00      356.00      349.00      310.00      298.00      326.00      347.00      331.00      328.00      333.00      331.00      326.00      298.00      266.04      266.04      269.00      282.00      290.00      291.00      299.00      317.00      335.00      342.00      353.00      379.00      410.00      422.00      403.00      393.00      394.00      395.00      406.00      428.00      446.00      444.00      442.01      442.02      442.03      442.04      442.05      442.06      473.00      484.00      489.00      494.00      494.00      489.00      492.00      495.00      490.00      493.00      491.00      493.00      482.00      450.00      437.00      448.00      457.00      444.00      425.00      427.00      439.00      448.00      467.00      484.00      512.00      553.00      579.00      588.00      567.00      551.00      553.00      539.00      500.00      487.00      474.00      450.00      444.00      466.00      477.00      461.00      418.00      389.00      358.00      325.00      297.00      297.00      302.00      314.00      328.00      339.00      329.00      317.00      300.00      268.00      236.00      223.00      216.00      209.01      209.01      209.02      220.00      230.00      236.00      233.00      229.00      242.00      242.00      240.00      270.00      246.00      246.00      251.00      257.00      277.00      299.00      312.00      331.00      361.00      372.00      377.00      362.00      344.03      349.00      352.00      370.00      393.00      424.00      432.00      408.00      424.00      431.00      423.00      426.00      453.00      464.00      479.00      501.00      533.00      552.00      554.00      554.00      558.00      583.00      616.00      642.00      662.00      659.00      664.00      678.00      679.00      633.00      621.00      613.00      622.00      640.00      614.00      563.00      519.00      517.00      524.00      528.00      522.00      514.00      517.00      523.00      525.00      539.00      556.00      572.00      590.00      590.00      586.00      583.00      587.00      584.00      575.00      566.00      558.00      554.00      544.00      523.00      509.00      503.00      504.00      498.00      488.00      476.00      456.00      437.00      421.00      414.00      378.00      373.00      369.00      367.00      362.00      361.01      376.00      404.00      418.00      418.00      401.00      397.00      409.00      415.00      414.00      430.00      441.00      433.00      426.00      426.01      430.00      436.00      446.00      454.00      472.00      488.00
235.00      262.00      272.00      258.00      243.00      227.00      217.00      225.00      219.00      213.00      207.00      208.00      207.02      223.00      249.00      267.00      291.00      320.00      309.00      269.00      244.00      249.00      278.00      306.00      326.00      325.00      306.00      305.00      300.00      334.00      354.00      353.00      325.00      301.00      312.00      353.00      370.00      356.00      355.00      351.00      322.00      298.00      273.00      266.05      266.05      284.00      310.00      331.00      332.00      315.00      310.00      328.00      359.00      392.00      417.00      451.00      464.00      461.00      466.00      457.00      450.00      445.00      433.00      434.00      442.00      443.00      442.02      442.03      442.04      442.05      448.00      447.00      451.00      462.00      481.00      487.00      500.00      493.00      499.00      514.00      528.00      516.00      497.00      495.00      485.00      472.00      487.00      512.00      495.00      461.00      448.00      453.00      461.00      480.00      494.00      517.00      544.00      573.00      600.00      599.00      584.00      581.00      556.00      522.00      508.00      480.00      443.00      426.00      436.00      441.00      433.00      398.00      358.00      345.00      326.00      296.00      280.00      284.00      287.00      287.00      291.00      293.00      285.00      265.00      238.00      219.00      212.00      211.00      211.00      209.02      211.00      226.00      247.00      256.00      255.00      253.00      259.00      261.00      268.00      296.00      276.00      271.00      286.00      284.00      279.00      308.00      334.00      337.00      347.00      351.00      352.00      344.02      344.03      357.00      371.00      380.00      383.00      415.00      445.00      436.00      433.00      438.00      423.01      438.00      470.00      491.00      510.00      533.00      560.00      581.00      590.00      596.00      600.00      617.00      643.00      672.00      685.00      681.00      683.00      693.00      694.00      667.00      657.00      661.00      669.00      675.00      635.00      570.00      545.00      559.00      565.00      563.00      547.00      527.00      531.00      543.00      557.00      569.00      581.00      597.00      609.00      603.00      590.00      582.00      584.00      587.00      568.00      548.00      537.00      531.00      530.00      517.00      505.00      503.00      498.00      497.00      483.00      466.00      440.00      415.00      404.00      400.00      383.00      361.00      356.01      356.02      361.00      375.00      387.00      413.00      423.00      423.00      413.00      429.00      437.00      429.00      437.00      456.00      462.00      448.00      436.00      441.00      454.00      457.00      473.00      486.00      499.00      516.00
257.00      277.00      267.00      247.00      232.00      221.00      217.01      230.00      246.00      239.00      211.00      207.01      207.02      208.00      219.00      238.00      289.00      330.00      323.00      283.00      255.00      254.00      272.00      289.00      305.00      325.00      343.00      340.00      334.00      354.00      354.00      340.00      312.00      313.00      340.00      374.00      389.00      378.00      363.00      334.00      311.00      275.00      266.06      274.00      273.00      281.00      306.00      339.00      357.00      342.00      330.00      342.00      376.00      417.00      449.00      468.00      481.00      485.00      486.00      482.00      473.00      459.00      450.00      443.00      451.00      470.00      466.00      455.00      446.00      453.00      469.00      447.01      447.01      447.02      458.00      474.00      481.00      480.00      510.00      529.00      538.00      529.00      533.00      535.00      532.00      530.00      536.00      544.00      526.00      496.00      476.00      474.00      481.00      502.00      522.00      547.00      561.00      582.00      625.00      634.00      604.00      573.00      557.00      536.00      505.00      470.00      420.00      396.00      400.00      392.00      398.00      372.00      338.00      321.00      317.00      296.00      268.00      268.00      269.00      261.00      258.00      264.00      252.00      234.00      223.00      219.00      212.00      216.00      214.00      213.00      212.00      220.00      228.00      240.00      248.00      259.00      276.00      287.00      299.00      324.00      315.00      308.00      307.00      303.00      295.00      308.00      338.00      339.00      343.00      344.00      344.01      344.02      356.00      369.00      394.00      410.00      397.00      401.00      422.00      439.00      444.00      448.00      441.00      459.00      486.00      511.00      529.00      549.00      568.00      591.00      610.00      618.00      624.00      641.00      660.00      689.00      705.00      719.00      714.00      724.00      719.00      688.00      692.00      709.00      715.00      706.00      650.00      602.00      588.00      582.00      587.00      578.00      559.00      542.00      549.00      555.00      573.00      588.00      603.00      607.00      603.00      591.00      574.00      566.00      570.00      579.00      558.00      531.00      516.00      509.00      513.00      508.00      495.00      495.00      484.00      483.00      462.00      436.00      417.00      397.00      384.00      381.00      378.00      356.00      356.01      376.00      380.00      388.00      381.00      398.00      419.00      428.00      421.00      435.00      452.00      443.00      447.00      464.00      473.00      464.00      457.00      471.00      477.00      476.00      500.00      529.00      527.00      556.00
270.00      278.00      257.00      245.00      231.00      225.00      234.00      244.00      253.00      231.00      216.00      219.00      211.00      216.00      218.00      229.00      260.00      315.00      327.00      300.00      280.00      284.00      277.00      276.00      287.00      316.00      348.00      371.00      382.00      389.00      353.00      320.00      317.00      325.00      357.00      384.00      377.00      355.00      332.00      300.00      277.00      269.00      283.00      306.00      305.00      288.00      303.00      331.00      360.00      363.00      369.00      383.00      396.00      420.00      439.00      446.00      454.00      456.00      461.00      472.00      478.00      474.00      475.00      459.00      468.00      485.00      494.00      487.00      476.00      485.00      491.00      456.00      447.02      455.00      464.00      460.00      473.00      477.00      491.00      513.00      535.00      553.00      567.00      574.00      593.00      591.00      584.00      570.00      549.00      507.00      495.00      507.00      515.00      540.00      564.00      597.00      606.00      603.00      614.00      618.00      582.00      543.00      541.00      529.00      483.00      446.00      403.00      376.00      372.00      353.00      350.00      342.00      322.00      306.00      296.00      281.00      267.00      258.00      255.00      246.00      241.01      242.00      238.00      230.00      221.00      219.00      221.00      218.00      214.00      212.01      212.01      221.00      232.00      230.00      237.00      257.00      280.00      297.00      298.00      311.00      326.00      344.00      329.00      319.00      310.00      312.00      326.00      339.00      359.00      362.00      344.01      351.00      363.00      375.00      403.00      425.00      425.00      399.00      404.00      424.00      449.00      471.00      476.00      489.00      509.00      528.00      553.00      572.00      585.00      604.00      623.00      642.00      655.00      665.00      679.00      695.00      721.00      743.00      745.00      755.00      752.00      731.00      725.00      734.00      733.00      723.00      691.00      649.00      627.00      609.00      590.00      579.00      565.00      556.00      560.00      562.00      573.00      585.00      604.00      605.00      586.00      572.00      565.00      556.00      560.00      571.00      554.00      528.00      508.00      499.01      499.00      498.00      495.00      483.00      469.00      459.00      427.00      398.00      394.00      384.00      367.00      354.00      354.00      357.00      373.00      388.00      392.00      403.00      389.00      399.00      413.00      424.00      429.00      439.00      452.00      465.00      466.00      478.00      496.00      486.00      481.00      511.00      526.00      524.00      546.00      565.00      561.00      575.00
277.00      283.00      260.00      244.00      236.00      242.00      262.00      261.00      248.00      226.00      237.00      234.00      241.00      244.00      241.00      242.00      253.00      311.00      337.00      314.00      294.00      283.00      285.00      305.00      316.00      333.00      365.00      396.00      418.00      401.00      356.00      331.00      345.00      347.00      360.00      361.00      345.00      327.00      301.00      282.00      271.00      275.00      288.00      314.00      333.00      311.00      309.00      335.00      355.00      361.00      379.00      414.00      416.00      405.00      403.00      413.00      422.00      426.00      439.00      451.00      476.00      492.00      494.00      480.00      491.00      507.00      517.00      513.00      503.00      504.00      492.00      451.00      447.03      449.00      451.00      457.00      474.00      480.00      496.00      502.00      526.00      548.00      568.00      595.00      624.00      633.00      621.00      598.00      550.00      521.00      527.00      535.00      548.00      584.00      618.00      648.00      644.00      596.00      566.00      569.00      549.00      517.00      508.00      495.00      463.00      423.00      386.00      358.00      346.00      330.00      321.00      313.00      300.00      291.00      281.00      274.00      269.00      256.00      247.00      244.00      241.01      241.00      241.00      233.00      224.00      222.00      233.00      224.00      214.00      216.00      215.00      220.00      228.00      236.00      248.00      264.00      278.00      276.00      274.01      283.00      308.00      333.00      352.00      327.00      310.01      310.01      318.00      342.00      358.00      368.00      353.00      364.00      369.00      375.00      397.00      417.00      436.00      417.00      416.00      427.00      454.00      490.00      516.00      540.00      560.00      570.00      589.00      606.00      612.00      616.00      634.00      656.00      672.00      679.00      689.00      709.00      723.00      749.00      763.00      768.00      762.00      744.00      731.00      730.00      733.00      735.00      717.00      679.00      643.00      608.00      573.00      563.00      552.00      550.00      563.00      572.00      569.00      569.00      582.00      590.00      580.00      566.00      560.00      544.00      547.00      556.00      552.00      529.00      511.00      501.00      499.00      499.00      495.00      466.00      452.00      436.00      406.00      382.00      372.00      357.00      353.04      353.05      367.00      378.00      396.00      415.00      427.00      423.00      407.00      420.00      425.00      433.00      434.00      448.00      465.00      486.00      500.00      528.00      542.00      521.00      519.00      546.00      583.00      581.00      591.00      591.00      579.00      584.00
296.00      294.00      266.00      245.00      243.00      260.00      277.00      272.00      245.00      244.00      272.00      261.00      273.00      285.00      277.00      259.00      252.00      298.00      339.00      329.00      305.00      298.00      305.00      322.00      342.00      344.00      375.00      421.00      421.00      380.00      345.00      351.00      384.00      378.00      369.00      340.00      318.00      304.00      285.00      287.00      289.00      296.00      304.00      308.00      339.00      333.00      309.01      321.00      335.00      357.00      383.00      403.00      398.00      383.03      383.04      392.00      402.00      409.00      428.00      450.00      473.00      499.00      510.00      507.00      495.00      509.00      525.00      532.00      512.00      493.00      476.00      448.00      447.04      449.00      473.00      488.00      498.00      506.00      506.00      518.00      526.00      538.00      566.00      608.00      645.00      655.00      652.00      627.00      568.00      551.00      559.00      571.00      588.00      623.00      676.00      698.00      649.00      582.00      536.00      529.00      511.00      486.00      463.00      447.00      423.00      389.00      365.00      344.00      329.00      321.00      312.00      302.00      292.00      282.00      274.00      271.00      262.00      256.00      259.00      275.00      275.00      265.00      255.00      237.00      229.00      234.00      240.00      224.00      215.00      214.01      221.00      223.00      227.00      244.00      264.00      267.00      264.01      274.00      295.00      306.00      318.00      347.00      365.00      333.00      310.02      310.02      321.00      351.00      368.00      371.00      363.00      381.00      384.00      383.00      391.00      408.00      438.00      446.00      446.00      456.00      482.00      518.00      560.00      597.00      620.00      618.00      631.00      647.00      650.00      637.00      647.00      663.00      673.00      684.00      701.00      715.00      733.00      746.00      753.00      754.00      746.00      734.00      723.00      720.00      726.00      720.00      704.00      665.00      624.00      580.00      551.00      542.00      537.00      556.00      583.00      586.00      571.00      556.00      557.00      561.00      575.00      567.00      546.00      527.00      532.00      542.00      548.00      533.00      513.00      508.00      506.00      505.00      483.00      444.00      430.00      427.00      411.00      387.00      354.00      353.03      354.00      376.00      386.00      396.00      410.00      420.00      445.00      445.00      427.00      448.00      454.00      459.00      452.00      459.00      495.00      516.00      550.00      583.00      585.00      567.00      566.00      581.00      604.00      602.00      595.00      594.00      593.00      593.00
304.00      282.00      257.00      243.01      245.00      275.00      297.00      291.00      257.00      262.00      291.00      294.00      314.00      329.00      324.00      289.00      266.00      294.00      328.00      333.00      327.00      332.00      341.00      350.00      364.00      360.00      387.00      430.00      430.00      386.00      354.00      364.00      386.00      393.00      368.00      332.00      302.00      288.00      288.00      300.00      303.00      313.00      338.00      344.00      338.00      333.00      331.00      342.00      366.00      398.00      403.00      383.01      383.02      386.00      386.00      383.05      393.00      412.00      442.00      471.00      484.00      512.00      525.00      514.00      495.01      499.00      520.00      520.00      502.00      487.00      462.00      447.05      447.05      456.00      478.00      502.00      524.00      540.00      536.00      549.00      556.00      555.00      568.00      607.00      646.00      667.00      673.00      652.00      621.00      589.00      592.00      619.00      643.00      683.00      723.00      711.00      641.00      583.00      540.00      507.00      476.00      452.00      434.00      415.00      394.00      378.00      365.00      350.00      341.00      328.00      313.00      305.00      296.00      285.00      285.00      282.00      277.00      283.00      298.00      301.00      280.00      259.00      244.00      235.00      238.00      253.00      255.00      234.00      216.00      217.00      220.00      231.00      250.00      250.00      264.00      268.00      264.02      279.00      302.00      325.00      334.00      346.00      353.00      331.00      325.00      310.03      322.00      342.00      357.00      371.00      370.00      372.00      378.00      389.00      398.00      415.00      446.00      472.00      487.00      503.00      539.00      570.00      610.00      645.00      658.00      648.00      649.00      663.00      671.00      658.00      659.00      666.00      678.00      693.00      707.00      716.00      741.00      751.00      737.00      725.00      722.00      715.00      708.00      703.00      711.00      706.00      682.00      641.00      596.00      566.00      541.00      528.00      546.00      576.00      593.00      574.00      551.00      537.00      530.00      529.00      541.00      554.00      539.00      519.00      525.00      539.00      537.00      515.00      496.00      493.00      496.00      489.00      466.00      445.00      421.00      418.00      411.00      385.00      353.02      353.02      357.00      371.00      377.00      386.00      391.00      410.00      451.00      467.00      449.00      464.00      491.00      495.00      476.00      481.00      495.00      507.00      553.00      582.00      582.00      594.00      595.00      589.00      596.00      590.00      576.00      578.00      578.00      578.00
309.00      275.00      259.00      249.00      251.00      279.00      303.00      304.00      280.00      271.00      293.00      318.00      346.00      374.00      376.00      331.00      292.00      276.00      298.00      317.00      336.00      361.00      384.00      392.00      401.00      387.00      391.00      427.00      422.00      383.00      389.00      384.00      402.00      388.00      344.00      309.00      298.00      304.00      301.00      307.00      322.00      336.00      365.00      381.00      345.00      349.00      380.00      391.00      403.00      415.00      409.00      386.00      383.02      399.00      405.00      392.00      395.00      424.00      463.00      492.00      504.00      522.00      526.00      514.00      511.00      503.00      513.00      503.00      475.00      463.00      447.06      447.06      447.06      462.00      469.00      489.00      516.00      546.00      561.00      570.00      582.00      585.00      585.00      601.00      636.00      673.00      693.00      689.00      661.00      626.00      636.00      671.00      714.00      736.00      744.00      699.00      634.00      580.00      535.00      496.00      465.00      451.00      450.00      434.00      419.00      414.00      397.00      375.00      367.00      342.00      322.00      312.00      307.00      316.00      317.00      315.00      322.00      317.00      315.00      290.00      259.00      245.00      239.00      242.00      259.00      284.00      277.00      242.00      217.00      219.00      222.00      235.00      255.00      266.00      276.00      278.00      272.00      280.00      298.00      317.00      342.00      357.00      345.00      328.00      344.00      314.00      310.04      318.00      333.00      352.00      372.00      379.00      378.00      393.00      412.00      432.00      459.00      488.00      516.00      550.00      593.00      620.00      641.00      667.00      663.00      633.00      623.00      633.00      648.00      649.00      653.00      656.00      666.00      682.00      699.00      714.00      726.00      736.00      724.00      716.00      710.00      699.00      690.00      682.00      697.00      696.00      663.00      620.00      576.00      549.00      531.00      520.00      545.00      564.00      570.00      542.00      518.00      497.00      498.00      489.00      508.00      522.00      524.00      513.00      518.00      528.00      514.00      488.00      472.00      464.00      459.00      448.00      440.00      448.00      418.00      399.00      393.00      388.00      356.00      353.01      353.02      361.00      368.00      379.00      388.00      408.00      437.00      455.00      460.00      474.00      499.00      492.00      469.00      456.00      458.00      479.00      501.00      516.00      540.00      565.00      569.00      581.00      593.00      583.00      564.00      563.00      563.00      570.00
314.00      293.00      277.00      262.00      259.00      276.00      296.00      307.00      303.00      285.00      295.00      329.00      364.00      400.00      405.00      353.00      305.00      279.00      278.00      308.00      345.00      374.00      398.00      426.00      432.00      413.00      410.00      435.00      413.00      406.00      436.00      421.00      400.00      369.00      330.00      304.00      309.00      324.00      325.00      326.00      336.00      348.00      378.00      393.00      373.00      371.00      385.00      413.00      429.00      425.00      413.00      392.00      383.03      411.00      434.00      415.00      405.00      422.00      456.00      487.00      505.00      521.00      524.00      528.00      541.00      512.00      499.00      481.00      458.00      447.07      447.07      453.00      461.00      470.00      477.00      495.00      512.00      539.00      567.00      594.00      610.00      620.00      631.00      638.00      637.00      666.00      700.00      711.00      679.00      657.00      685.00      736.00      776.00      763.00      717.00      660.00      613.00      565.00      519.00      488.00      477.00      482.00      492.00      485.00      477.00      458.00      421.00      392.00      378.00      349.00      335.00      328.00      330.00      359.00      357.00      354.00      353.00      324.00      297.00      270.00      253.00      250.00      253.00      262.00      286.00      311.00      291.00      244.00      222.00      222.00      219.01      227.00      245.00      257.00      272.00      292.00      300.00      306.00      313.00      321.00      356.00      373.00      359.00      336.00      344.00      316.00      310.05      318.00      334.00      347.00      373.00      397.00      400.00      406.00      425.00      447.00      473.00      501.00      533.00      571.00      609.00      642.00      661.00      669.00      656.00      615.00      598.00      598.00      614.00      627.00      628.00      634.00      646.00      660.00      682.00      695.00      704.00      714.00      710.00      709.00      700.00      688.00      674.00      668.00      675.00      658.00      624.00      594.00      558.00      538.00      525.00      510.00      519.00      527.00      540.00      512.00      486.00      478.00      476.00      467.00      475.00      475.00      494.00      497.00      502.00      509.00      492.00      466.00      442.00      418.00      406.00      407.00      407.00      418.00      398.00      377.00      370.00      372.00      353.00      353.01      353.02      359.00      372.00      383.00      392.00      412.00      426.00      441.00      464.00      463.00      467.00      453.00      438.00      425.00      434.00      457.00      477.00      503.00      535.00      559.00      569.00      584.00      575.00      564.00      550.00      545.00      552.00      561.00
314.00      303.00      292.00      275.00      274.00      286.00      302.00      325.00      329.00      303.00      295.00      322.00      373.00      405.00      403.00      361.00      334.00      306.00      280.00      296.00      307.00      334.00      382.00      425.00      443.00      446.00      440.00      437.00      422.00      452.00      458.00      414.00      368.00      345.00      340.00      330.00      318.00      340.00      354.00      358.00      359.00      353.00      384.00      401.00      412.00      407.00      385.00      400.00      426.00      434.00      409.00      389.00      401.00      440.00      468.00      460.00      441.00      430.00      439.00      463.00      495.00      520.00      521.00      528.00      535.00      515.00      494.00      479.00      463.00      447.08      447.08      467.00      477.00      479.00      486.00      499.00      513.00      534.00      573.00      602.00      625.00      649.00      680.00      689.00      679.00      678.00      703.00      719.00      699.00      698.00      726.00      768.00      807.00      762.00      702.00      643.00      602.00      564.00      534.00      516.00      505.00      508.00      526.00      536.00      520.00      488.00      444.00      415.00      393.00      373.00      363.00      356.00      358.00      390.00      388.00      382.00      345.00      314.00      293.00      268.00      263.00      274.00      278.00      286.00      314.00      327.00      298.00      243.00      226.00      222.00      225.00      241.00      240.00      260.00      292.00      318.00      337.00      344.00      336.00      327.00      344.00      363.00      364.00      345.00      340.00      320.00      315.00      324.00      340.00      352.00      381.00      398.00      411.00      418.00      428.00      449.00      484.00      524.00      557.00      596.00      625.00      650.00      654.00      661.00      651.00      610.00      576.00      565.00      582.00      601.00      604.00      609.00      631.00      648.00      663.00      669.00      675.00      692.00      700.00      701.00      697.00      679.00      655.00      640.00      634.00      623.00      595.00      565.00      548.00      534.00      515.00      503.00      503.00      519.00      510.00      490.00      483.00      458.00      455.00      440.00      435.00      439.00      468.00      477.00      488.00      501.00      481.00      445.00      412.00      382.00      374.00      375.00      376.00      378.00      368.00      357.00      344.00      345.00      353.00      361.00      362.00      366.00      378.00      397.00      414.00      431.00      442.00      442.00      452.00      442.00      433.00      420.00      420.01      431.00      448.00      471.00      489.00      516.00      555.00      579.00      581.00      566.00      547.00      543.00      527.00      528.00      547.00      552.00
318.00      311.00      293.00      291.00      293.00      301.00      320.00      352.00      351.00      327.00      297.00      318.00      359.00      413.00      416.00      392.00      361.00      323.00      300.00      295.00      295.01      315.00      365.00      401.00      429.00      461.00      479.00      459.00      455.00      466.00      432.00      400.00      371.00      356.00      352.00      340.00      339.00      353.00      369.00      386.00      388.00      376.00      388.00      423.00      442.00      417.00      401.00      393.00      407.00      423.00      421.00      413.00      425.00      468.00      506.00      503.00      484.00      458.00      439.00      458.00      499.00      512.00      514.00      516.00      511.00      504.00      492.00      480.00      466.00      447.09      447.09      464.00      475.00      482.00      489.00      499.00      513.00      538.00      579.00      611.00      631.00      659.00      699.00      729.00      736.00      730.00      729.00      740.00      737.00      746.00      777.00      821.00      812.00      749.00      690.00      653.00      617.00      607.00      587.00      566.00      553.00      554.00      560.00      572.00      553.00      510.00      469.00      449.00      428.00      416.00      402.00      389.00      377.00      385.00      397.00      390.00      347.00      329.00      311.00      275.00      281.00      309.00      315.00      311.00      318.00      308.00      280.00      238.00      225.00      227.00      246.00      272.00      259.00      255.00      269.00      295.00      324.00      346.00      363.00      364.00      363.00      363.00      378.00      373.00      341.00      325.00      321.00      333.00      360.00      371.00      386.00      399.00      402.00      415.00      445.00      480.00      517.00      559.00      592.00      623.00      651.00      645.00      630.00      636.00      627.00      593.00      556.00      538.00      546.00      571.00      578.00      588.00      612.00      632.00      641.00      637.00      644.00      679.00      698.00      689.00      685.00      660.00      630.00      592.00      588.00      587.00      577.00      553.00      537.00      520.00      509.00      503.00      499.00      508.00      489.00      469.00      475.00      458.00      441.00      424.00      411.00      420.00      445.00      455.00      471.00      491.00      470.00      424.00      393.00      368.00      349.00      347.00      346.00      337.00      337.00      333.00      340.00      359.00      384.00      400.00      400.00      391.00      393.00      406.00      424.00      428.00      433.00      424.00      413.00      414.00      405.00      420.00      433.00      449.00      470.00      492.00      518.00      545.00      568.00      568.00      565.00      544.00      520.00      510.00      508.00      513.00      531.00      533.00
332.00      317.00      320.00      321.00      308.00      318.00      341.00      371.00      377.00      354.00      314.00      328.00      355.00      414.00      438.00      434.00      384.00      339.00      327.00      313.00      295.01      312.00      354.00      392.00      427.00      474.00      505.00      479.00      479.00      461.00      425.00      391.00      372.00      368.00      364.00      357.00      370.00      363.00      372.00      408.00      416.00      411.00      418.00      438.00      462.00      447.00      433.00      413.00      412.00      441.00      462.00      441.00      431.00      474.00      507.00      513.00      508.00      483.00      462.00      467.00      489.00      504.00      522.00      538.00      524.00      513.00      493.00      467.00      454.00      447.10      447.10      451.00      462.00      472.00      484.00      500.00      523.00      554.00      586.00      604.00      625.00      654.00      694.00      728.00      761.00      782.00      778.00      775.00      772.00      798.00      835.00      855.00      816.00      753.00      688.00      662.00      675.00      670.00      635.00      608.00      617.00      608.00      595.00      592.00      573.00      535.00      508.00      491.00      475.00      454.00      443.00      420.00      380.00      360.00      372.00      380.00      364.00      342.00      304.00      283.00      308.00      342.00      336.00      313.00      302.00      286.00      250.00      231.00      227.00      239.00      265.00      292.00      291.00      265.00      258.00      266.00      294.00      332.00      351.00      367.00      393.00      405.00      406.00      396.00      372.00      344.00      333.00      342.00      353.00      364.00      372.00      388.00      425.00      463.00      488.00      511.00      546.00      585.00      618.00      638.00      643.00      626.00      618.00      605.00      598.00      589.00      559.00      532.00      520.00      534.00      555.00      575.00      595.00      608.00      614.00      608.00      633.00      668.00      692.00      678.00      669.00      640.00      588.00      561.00      545.00      544.00      547.00      534.00      533.00      526.00      512.00      499.00      498.00      497.00      480.00      455.00      460.00      459.00      441.00      424.00      398.00      401.00      416.00      435.00      460.00      474.00      450.00      411.00      375.00      349.00      330.00      321.00      313.00      312.00      310.00      327.00      364.00      403.00      425.00      432.00      420.00      405.00      396.00      397.00      400.00      406.00      412.00      396.00      385.00      392.00      400.00      427.00      458.00      477.00      499.00      522.00      542.00      550.00      545.00      536.00      527.00      508.00      492.00      493.00      481.00      492.00      519.00      517.00
333.00      330.00      345.00      345.00      328.00      343.00      366.00      394.00      409.00      378.00      349.00      342.00      369.00      410.00      441.00      442.00      389.00      359.00      351.00      323.00      295.02      317.00      339.00      389.00      430.00      455.00      490.00      492.00      487.00      463.00      425.00      392.00      387.00      389.00      380.00      394.00      400.00      378.00      383.00      404.00      427.00      445.00      447.00      455.00      477.00      480.00      457.00      444.00      430.00      445.00      468.00      457.00      445.00      470.00      492.00      501.00      502.00      501.00      500.00      484.00      479.00      498.00      531.00      558.00      547.00      534.00      509.00      478.00      466.00      451.00      447.11      447.11      458.00      475.00      501.00      528.00      546.00      561.00      589.00      615.00      644.00      658.00      689.00      732.00      779.00      820.00      835.00      826.00      818.00      834.00      868.00      851.00      797.00      738.00      705.00      708.00      734.00      729.00      693.00      672.00      674.00      654.00      606.00      567.00      553.00      552.00      551.00      532.00      511.00      486.00      459.00      429.00      389.00      357.00      341.00      347.00      343.00      324.00      300.00      304.00      333.00      353.00      334.00      298.00      278.00      260.00      237.00      231.00      232.00      253.00      282.00      294.00      303.00      288.00      277.00      283.00      290.00      300.00      321.00      355.00      404.00      430.00      439.00      429.00      392.00      354.00      351.00      369.00      367.00      370.00      398.00      426.00      469.00      512.00      527.00      551.00      577.00      604.00      628.00      631.00      603.00      598.00      601.00      583.00      586.00      580.00      567.00      538.00      506.00      512.00      542.00      564.00      576.00      584.00      593.00      588.00      622.00      653.00      670.00      671.00      652.00      615.00      558.00      523.00      515.00      507.00      506.00      505.00      512.00      523.00      523.00      504.00      501.00      482.00      460.00      439.00      448.00      453.00      442.00      422.00      393.00      385.01      400.00      432.00      452.00      454.00      438.00      398.00      364.00      346.00      315.00      299.08      299.08      305.00      325.00      353.00      391.00      429.00      448.00      430.00      406.00      391.00      386.00      388.00      384.00      389.00      396.00      379.00      383.00      392.00      397.00      431.00      462.00      484.00      498.00      511.00      520.00      516.00      506.00      505.00      492.00      483.00      469.00      461.00      460.00      486.00      524.00      511.00
319.00      336.00      353.00      363.00      356.00      372.00      389.00      417.00      430.00      415.00      384.00      366.00      388.00      422.00      440.00      421.00      392.00      392.00      375.00      338.00      312.00      319.00      339.00      391.00      423.00      434.00      458.00      464.00      462.00      447.00      419.00      401.00      408.00      407.00      411.00      435.00      415.00      395.00      413.00      419.00      422.00      441.00      464.00      471.00      488.00      488.00      486.00      479.00      449.00      445.00      458.00      475.00      452.00      447.00      470.00      494.00      506.00      518.00      532.00      513.00      496.00      499.00      520.00      532.00      534.00      545.00      543.00      515.00      495.00      462.00      447.12      464.00      481.00      503.00      529.00      549.00      572.00      590.00      615.00      645.00      675.00      686.00      709.00      742.00      797.00      836.00      840.00      828.00      831.00      829.00      822.00      826.00      814.00      774.00      761.00      767.00      779.00      778.00      752.00      737.00      705.00      647.00      580.00      525.00      512.00      530.00      536.00      520.00      495.00      463.00      430.00      415.00      390.00      358.00      329.00      318.00      314.00      313.00      323.00      325.00      340.00      336.00      314.00      281.00      258.00      243.00      235.00      236.00      238.00      250.00      267.00      277.00      293.00      313.00      316.00      332.00      318.00      296.00      329.00      361.00      381.00      410.00      421.00      412.00      382.00      365.00      373.00      394.00      401.00      407.00      429.00      465.00      502.00      538.00      576.00      605.00      614.00      626.00      634.00      609.00      576.00      573.00      577.00      566.00      569.00      566.00      561.00      534.00      503.00      500.00      525.00      540.00      547.00      567.00      579.00      577.00      604.00      631.00      645.00      658.00      636.00      587.00      534.00      495.00      481.00      465.00      469.00      487.00      496.00      509.00      520.00      498.00      487.00      468.00      441.00      420.00      424.00      436.00      430.00      421.00      402.00      385.00      398.00      428.00      434.00      428.00      409.00      367.00      337.00      321.00      307.00      299.07      299.07      318.00      362.00      396.00      426.00      448.00      441.00      417.00      399.00      385.00      382.01      382.00      378.00      384.00      387.00      368.00      390.00      390.00      394.00      420.00      433.00      443.00      448.00      459.00      471.00      482.00      483.00      477.00      469.00      463.00      438.00      429.00      451.00      487.00      512.00      489.00
350.00      375.00      370.00      377.00      383.00      395.00      421.00      446.00      454.00      444.00      404.00      395.00      431.00      452.00      448.00      421.00      430.00      438.00      397.00      357.00      332.00      318.00      336.00      363.00      390.00      405.00      410.00      425.00      431.00      422.00      416.00      425.00      442.00      444.00      457.00      461.00      430.00      427.00      449.00      457.00      444.00      444.00      457.00      477.00      500.00      515.00      530.00      502.00      476.00      466.00      464.00      476.00      468.00      447.01      463.00      492.00      505.00      526.00      552.00      547.00      542.00      530.00      512.00      517.00      539.00      574.00      568.00      531.00      498.00      468.00      456.00      471.00      495.00      518.00      542.00      563.00      590.00      621.00      637.00      661.00      693.00      715.00      744.00      786.00      820.00      810.00      789.00      788.00      786.00      781.00      792.00      812.00      836.00      842.00      831.00      825.00      841.00      829.00      792.00      745.00      683.00      621.00      567.00      521.00      493.00      496.00      491.00      470.00      448.00      419.00      399.00      391.00      365.00      347.00      336.00      317.00      317.00      329.00      349.00      338.00      324.00      302.00      283.00      260.00      248.00      242.00      237.00      241.00      249.00      247.00      259.00      270.00      284.00      305.00      326.00      342.00      316.00      296.01      315.00      335.00      348.00      373.00      398.00      414.00      402.00      399.00      402.00      422.00      435.00      450.00      471.00      489.00      521.00      561.00      606.00      627.00      629.00      627.00      606.00      577.00      556.00      547.00      552.00      541.00      549.00      545.00      546.00      528.00      496.00      487.00      497.00      510.00      526.00      554.00      566.00      563.00      578.00      602.00      621.00      641.00      613.00      565.00      518.00      474.00      450.00      436.00      454.00      471.00      481.00      499.00      505.00      489.00      480.00      450.00      426.00      407.00      395.00      412.00      416.00      420.00      408.00      385.00      378.00      388.00      405.00      412.00      392.00      357.00      333.00      306.00      299.06      299.06      299.06      334.00      384.00      430.00      462.00      456.00      423.00      413.00      404.00      391.00      385.00      383.00      374.01      380.00      384.00      365.00      380.00      379.00      392.00      398.00      392.00      394.00      412.00      424.00      432.00      449.00      443.00      440.00      435.00      423.00      410.00      424.00      465.00      490.00      486.00      458.00
