ncols         400
nrows         53
xllcorner     874268.138
yllcorner     2734205.46497
cellsize      300
NODATA_value  -9999
387 415 413 411 391 417 448 554 559 616 500 423 374 374 430 361 321.01 422 384 321 316 309 291 362 343 305 274 245 257 275 245.01 303 311 290 295 341 330 336 323 313 323 328 328 309 303 314 330 303 320 305 311 280 298 295 329 359 356.01 365 421 452 523 492 470 482 510 521 478 464 433 398 365 348 354 384 396 400 381 345 373 324 296.01 296.01 319 387 436 491 388 327 356 405 502 526 499 482 478 507 419 350.01 355 316 310 306 320 405 392 389 304 312 279 277 289 314 353 353 323 329 348 326 328 296 313 312 310 325 328 324 317 306 310 264 280 301 300 352 316 369 299 302 305 307 284.01 284.01 284.01 284.02 316 363 352 309 376 355.01 397 389 396 380.01 394 377 331 311 315 328 323 269.02 269.01 287 265 263 273 291 260 247 234.27 234.28 234.29 234.3 243 270 262.01 265 273 265.02 271 265.04 265.05 290 284 268 286 301 331 315 301 311 321 321.01 350 369 368.01 368.01 371 377 381 458 482 468 501 482 478 561 587 577 623 722 746 818 791 805 743 684 664 664 637 670 635 607 535 546 577 506 559 576 605 523 491 625 626 595 531 517 470.01 512 631 656 601 629 620 685 738 677 525 453 437 392 407 435 423 345 414 416 333 342 386 448 312 275.09 276 275.07 275.06 288 285 313 292 311 336 308.05 308.05 308.05 308.06 308.07 312 308.09 318 339 318 356 336.01 446 398 363 375 396 386 460 527 542 493 522 524 490 442 385 280 268 261 245.03 245.02 257 268 278 295 268 266 262 262 262 247.06 247.05 249 276 254 257 247.02 247.03 262 260 257 263 258 243.32 243.32 257 248 243.35 248 259 257 287 308 299 293 254 258 267 281 264 255.02 255.02 269 344 326 320 286 294 324 345 420 376 397 441 456 422 409 381 364 372 349.02 349.03 349.04 355 380 361 371 365 429 402 373 425 493 411 374.04 383 374.02 374.01 407 373 341 378 372.01 372 345 323.02 339 339 384 395 369 297 327 334 410 473
368 383 362 358 385 413 510 551 568 669 520 446 390 400 494 434 353 370 451 352 311 295 275 321 426 350 307 252 245.01 274 245.02 288 303 264 273 299 313 348 362 340 360 328 313 298 294 310 296 283 304 301 278 281 280.01 297 370 356 361 392 422 429 529 547 513 497 473 466 422 396 448 402 386 401 404 452 469 458 371 405 384 348 303 296.02 297 331 468 460 367 333 408 426 470 490 521 520 513 487 447 359 350 297 279 278 338 380 304 301 275.02 290 275.02 277 321 345 311 303 312 308 327 308 286.01 314 281 278 294 297 307 290 307 289 293 287 260 276 323 299 365 322 294 268.01 289 311 299 284 315 332 351 351 323 308 367 380 362 351 381 380 389 357 357 325 299 295 286 273 269.01 269 257.01 257 246.01 246 234.26 234.26 234.27 234.28 236 234.3 253 262 262.01 262.02 298 272 278 265.05 267 292 285 287 279 279.01 294 310 319 311 377 366 418 385 388 368.02 368.02 368.03 423 447 454 465 470 423 491 496 497 508 608 637 681 696 705 793 817 709 749 714 672 694 697 670 556 572 546 537 596 612 628 529 501 628 612 585 551 471 470.02 474 560 680 738 764 712 651 652 650 543 480 404 430 464 413 392 350 364 384 418 400 428 407 359 288 275.08 275.07 275.06 275.05 275.05 280 307 340 308.06 308.06 308.06 308.06 308.06 308.07 308.08 308.09 308.1 308.11 330 364 364 419 406 393 350.01 380 368 454 566 539 546 480 499 509 447 379 312 277 272 245.03 256 245.01 251 282 268 266 262.01 273 262 249 247.06 247.05 247.04 247.03 247.02 247.01 251 260 249 255 264 252 243.31 243.31 243.31 253 258 247 243.36 249 256 279 332 347 296 263 254.01 279 305 262 255.03 255.03 255.03 267 277 269 276 308 308 318 371 343 390 367 436 402 396 371 366 349.01 353 371 351 353 345 361 446 411 358 355 366 405 532 472 391 402 392 425 453 426 365 412 390 393 384 324 378 427 494 420 367 316 304 385 442 525
324 303.02 310 347 397 400 433 502 581 623 555 487 409 427 479 549 389 418 444 377 316 289 267.01 327 383 408 353 285 245.02 245.02 245.03 268 282 263 303 327 319 346 337 350 389 324 299 282 286 282 274 301 272.02 277 272.02 295 311 328 329 359 373 420 481 480 410 479 469 473 425 390 378.01 394 443 442 433 397 400 456 457 446 410 440 406 385 323 326 296.03 340 395 432 403 385 375 448 450 458 494 496 490 457 391 336 282 290 276.02 295 324 310 281 333 321 275.01 319 318 308 325 295.02 295.01 318 302 286 292 286 295 268.03 268.03 275 295 279 306 287 287.01 296 265 251.01 258 298 312 328 315 268 280 282 281 258 284 336 338 286 310 296 308 353 356 328.01 354 373 353 378 353.02 359 350 341 359 296 307 283 316 274 340 295 253 234.25 247 255 257 285 294 303 265 262.01 262.02 266 281 267 265.06 282 300 327 318 333 327 315 347 365 368 396 432 481 436 451 443 420 375 368.04 368.05 429 441 448 404 445 459 522 557 568 598 616 630 666 732 780 834 744 706 646.02 688 666 610 601 627 591 537.01 537.01 579 655 585 501.01 615 600 538 483 470.03 483 517 555 632 704 772 727 657 616 621 566 477 448 527 458 426 406 353 378 388 436 413 390 358 334 310 298 276 282 277 275.04 290 345 330 308.07 308.07 308.07 308.07 308.07 310 311 338 345 362 342 372 406 439 407 360 350 353 362 396 513 521 457 421 418 418 354 302 279 309 264 278 259 245.01 245 264 278 264 265 278 265 255 257 249 255 247.03 265 259 247 249 246 245.01 255 243.3 243.3 243.3 243.3 279 268 244 243.37 250 262 284 332 376 313 261 254.02 260 289 274 257 282 255.04 255.04 260 272 288 294 302 311 308 338 369 343 360 398 381 368 361 383 349 343 321 361 335 335.01 354 366 370 342 360 410 415 516 499 483 428 430 411 387 368 422 454 420 346 324.01 324.01 387 443 374 326 343 324 351 391 411
303.01 303.02 331 326 361 418 475 529 638 644 627 568 489 481 578 582 482 443 487 431 309 286 267 277 342 355 337 328 267 245.03 284 270 255 270 329 348 354 318 306 351 391 343 280 307 287 294 269.08 279 278 272.01 313 321 327 341 348 365 414 395 358 370 410 411 369 385 391 378 381 423 451 562 502 486 488 493 494 435 519 525 460 407 408 385 307 301 318 356 452 490 472 454 447 463 447 397 373 358 289 285 276.04 284 291 276.01 278 278 340 320 319 275 279 316 308 325 336 309 295 278.02 286 263.02 296 294 268.02 268.02 276 279 265.03 278 322 297 300 302 254 251 266 262 276 265 268 274 300 254 280 338 280 275 304 312 287 303 314 341 328 373 350 365 353.01 406 375 339 300.01 333 304 328 327 314 276 328 308 283 234.24 242 265 253 287 349 387 336 329 304 273 277 265.07 265.07 265.07 278 302 283 297 329 380 427 425 390 461 502 474 469 436.01 512 450 457 389 368.05 374 379 379.01 407 519 481 537 542 535 603 555 638 714 788 844 808 754 660 646.02 646.01 646 656 696 688 663 618 572 623 670 580 568 622 597 563 501 520 519 579 573 685 729 663 623 592 549 550 584 588 576 574 467 463 437 387 357 357.01 396 458 369 352 341 366 390 284 279 275.03 275.03 356 379 398 372 321 347 333 308.08 308.08 357 469 435 407 375 399 452 500 373 320.02 374 381 345 386 475 513 422 393 370 351 323 438 387 290 372 349 311 259 255 243.29 243.29 267 254 256 245 254 270 265 262 264 276 247.01 268 245 245 255 257 249 243.29 243.29 243.29 269 262 254 243.38 257 265 295 336 333 281 259 262 271 290 267 260 290 289 268 263 260.01 260.02 265 275 294 294.01 347 309 323 354 375 387 369 350 349 339 348 319.02 329 355 341 354 335.01 335.02 366 378 384 365 429 499 499 426 374 359 343 388 331 352 363 324.02 324.02 324.02 390 461 472 378 408 340 360 355 371
315 303.02 345 378 374 431 534 557 654 689 659 541 479 492 568 638 577 422 433 429 321 283 265 254 308 296 294 316 275 245.04 245.04 248 245.06 261 285 345 333 305 307 280 313 299 269.04 269.04 269.04 297 288 269.07 272 281 283 321 322 312 358 392 353 336 336.01 363 415 370 410 356 366 358.01 456 496 537 610 520 485 450 432 540 540 596 632 602 584 539 386 313 329 366 429 540 562 484 416 416 442 441 445 407 325 276.06 281 279 276.03 276.02 276.01 276 315 284 266 298 271 295 272.01 310 286 318 292 293 278.01 282 263.01 275 296 268.01 268.01 278 277 265.02 283 385 282 271 288 255 250.01 251 261 277 304 257.01 308 287 249.02 293 273 266 287 320 286 280.04 286 302 317 337 309 319 396 355 384 386 375 304 300 335 346 327 302 266 289 288 247 234.23 235 265 234.24 272 334 383 350 382 321 274 277 265.08 270 265.08 292 271.01 286 318 361 397 452 435 440 498 477 497 503 474 520 531 422 368.06 368.06 368.06 396 379.01 379.02 399 439 514 518 509 522 531 596 690 763 816 829 716 733 667 737 739 728 747 775 749 648 631 672 693 620 628 647 563.01 572 578 550 594 566 606 768 740 731 713 651 601 535 530.01 587 636 548 488 453 422 398 392 375 388 404 341.02 341.01 346 317 306 300 300 292 275.02 291 309 351 426 390 379 309 320 314 358 485 485 456 375.01 378 455 452 396 320.01 367 387 327 386 419 520 434 435 454 362 440 435 311 364 349 344 298 297 307 260 243.28 251 243.28 243.29 243.3 256 256 278 258 267 267 273 272 272 243.28 244 243.28 243.28 243.28 243.28 243.28 268 260 258 257 251 288 324 354 315 273 259.01 276 287 293 279 266 271 273 290 271 271 263 280 283 307 294.01 294.02 294.03 302 309 345 394 423 381 339 319.01 338 319.01 340 332 332.01 335 336 336 359 326 365 337 395 462 435 450 376 388 332 348 332 317 334 331 325 341 401 438 499 436 390 415 434 390 417
378 303.03 344 362 362.01 412 475 527 582 700 637 537 469 470 508 618 529 401 368 461 329 275 266 246.04 257 254 299 335 287 245.05 245.05 245.05 245.06 277 288 345 316 358 295 293 269.03 274 269.03 269.03 277 288 269.06 273 272 309 344 305 310 314 352 355 327 338 347 395 362 388 378 343 358 377 434 479 439 437 440 419 406 488 593 609 674 703 620 563 525 428 313.01 346 390 470 604 538 425 362 345 366 345 352 314 276.07 295 276.05 276.04 276.03 276.02 276.01 284 267.01 267 256.01 290 268 279 272 292 282 289 301 303 278 285 263 265 293 268 275 268.02 282 265.01 283 331 286 281 267 285 264 250 259 269 281 257 304 259 249.01 265 257 257.01 265 307 300 280.03 323 312 302.01 306 334 352 350 323.01 381 362 370 339 302 276 310 261 287 241 262 234.22 234.22 234.22 234.22 234.23 243 265 295 337 298 332 332 312 304 267 283 265.09 271 295 302 357 338 371 383 418 456 503 477.01 528 494 501 565 550 398 393 409 368.07 384 429 454 429 480 452 460 550 531 591 652 670 740 848 903 818 741 731 770 846 812 788 732 672 631.01 680 729 721 692 657 654 588 617 655 598 671 652 648 731 727 715 730 709 659 613 530 556 544 503 480 441 426 399 369 359 350 344 341.02 416 401 356 330 305 304 293 290 275.01 306 388 400 414 397 326 280.04 302 387 451 473 486 376 392 470 466 363 320 353 386 324 363 434 443 504 514 481 505 421 348 413 394 379 295 299 268.01 279 251 245 243.27 267 250 258 257 263 256 263 253 268 274 272.01 300 243.27 243.27 243.27 243.27 243.27 243.27 243.27 253 272 255 270 270 282 289 286.01 323 264 263 278 299 286 272 268 267 269 269.01 283 281 297 267 286 304 335 314 323 314 309 309.01 309.02 367 371 376 350 319 329 344 337 333 341 318.06 320 360 322 324 331 365 394 431 428 397 418 362 329 315 318 325 325.01 325.01 346 361 450 545 475 417 432 446 408 390.01
377 325 375 363 435 430 449 501 532 592 609 575 466 431 473 521 565 472 349 377 369 292 256 246.04 246.03 246.02 246.01 246 245.06 265 258 245.06 245.06 249 291 286.01 286.01 319 292 271 269.02 289 269.02 297 269.04 269.05 269.06 276 305 300 348 385 327 313 344 313.02 313.03 313.04 345 382 359 363 331 342 352 374 398 401 378 382 400 375 432 535 593 676 701 682 555 494 435 414 335 384 460 536 620 536 448 348 336 298 318 313 300 276.08 280 295 293 283 277 310 337 331 295 256 265 254 275 266 269 282 286 286 286 274 261 260.01 270 275 267.02 281 275 273 270 265 265.01 270 294 289 267 243.23 244 265 276 275 249 269 249 254 249.02 305 296 281 289 280.02 280.02 324 339 321 309 372 411 419 397 323 322 343 347 322 265 263 255 241.01 249 234.21 234.21 234.21 234.21 234.22 245 285 276 297 267 277 293 297 268.01 268 268 280 265.1 272 291 302 324 360 366 378 411 436 492 538 538 494.01 544 556 487 401 451 470 411 368.08 369 405 489 467 481 541 625 643 598 650 698 780 799 830 807 752 732 743 873 878 907 828 782 657 692 722 764 776 684 648 616 623 615 647 711 729 704 698 706 622 606 632 637 642 544 474 445 427.01 427 401 378 369.01 386 384 401 405 398 461 522 461 437 329 337 328 332 304 275 305 318 371 395 369 288 280.03 296 392 465 477 444 466 440 451 342 329 312 369 340 313.02 346 423 523 514 559 514 472 440 388 373.01 373 297 289 323 268 260 270 261 243.26 243.26 243.26 251 255 263 252 249 267 303 308 276 253 243.26 243.26 243.26 243.26 243.26 243.27 243.28 257 264 253 254 286 286 286.01 297 276 275 300 307 285 291 294 280 291 291 304 283 299 306 278 300 308 343 391 381 376 363 372 309.03 330 357 338 327 318.12 320 333 318.08 318.07 335 318.05 327 328 318.03 332 371 414 470 497 477 494 413 369 323 314 327 331 347 357 402 446 573 520 489 510 470 482 436
385 382 432 409 466 465 445 495 482 544 570 532 472 407 406 460 547 444 349 327 384 315 276 246.04 246.03 246.02 246.01 253 291 258 261 247 245.07 300 339 286 307 317 327 314 275 269.01 269.02 305 289 269.05 281 284 348 367 397 399 332 350 313.01 313.02 313.03 341 313.05 345 356 327 325.01 372 339.02 353 381 380 388 369 350.01 370 427 510 506 640 614 593 548 511 504 451 391 439 514 550 519 489 421 410 343 286 289 276.1 276.09 276.09 325 336 296 307 301 294 321 290 300 276 252.11 258 256 278 266.01 286 276 289 258 256.05 287 260 290 280 267.01 270 259.04 259.03 259.03 272 287 269 263 258 250 245 243.22 263 262 274 243.22 253 243.22 291 308 282 288 280.01 280.01 280.01 299 314 349 298 340 344 346 405 355 322.01 334 310.01 331 346 303 255.01 281 271 250 234.2 234.2 234.2 266 257 255 272 278 269 251.01 296 294 273 270 272 296 353 302 313 298 331 374 390 423 442 518 535 554 512 500 494.02 599 528 456 401.01 483 523 457 415 368.09 384 437 491 486 482 530 533 529 559 625 721 748 735 790 778 684 715 784 941 976 858 791 659 728 793 815 817 726 738 667 660 627 594 657 698 657 638 645 645 623 564 545.01 545 502 518 492 490 438 390 386 425 415 427 442 458 474 499 502 462 417 443 407 383 358 316 278 273 314 351 429 398 311 280.02 332 522 465 372 411 494 413 396 352 330 294.02 371 313.01 333 378 450 498 478 477 478 515 503 448 410 394 344 318 277 265 269 258 252 243.25 243.25 244 257 243.25 264 243.25 253 268 299 302 290 256 243.25 243.25 243.25 243.25 243.26 243.27 243.28 256 251 257 265 286 287 286.01 301 296 275.01 285 310 303 294 296 305 310 332 321 292 307 338 296 317 360 380 450 445 415 401 387 363 324 342 371 349 318.11 318.11 333 330 318.08 342 318.05 318.04 339 318.02 323 394 381 383 463 571 544 448 427 334 313.03 337 338 370 385 418 500 557 520 512 463 463 445 442
396 418 419 411 408 394 422 442 431 470 590 551 537 400 369.01 369 473 433 327 305 325 311 283 250 257 257 246.02 251 298 281 253 245.08 245.08 289 277 284 336 330 319 261.04 269 296 344 314 303 277 288 281.01 281.02 353 345 367 384 345 324 356 313.03 345 313.06 313.06 355 325 356 346 339.01 354 366 346 382 350 381 415 498 499 558 602 584 519 509 486 479 439 467 443 425 455 473 473 444 376 317 298 276.11 276.1 292 276.1 316 380 308 298 298 277 275.02 282 294 277 252.1 252.1 258 269 266.02 271 281 290 273 270 256.04 268 262 267 289 272 288 277 259.02 280 280 274 254 299 248 271 243.21 243.21 248 254 283 243.21 260 257 277 318 288 344 280 310 308 309 287.03 318 306 333 314 322 323 322.02 381 310 312 306 316 271 266 297 241 261 234.19 234.19 254 253 283 280 242 251 264 257 257.01 257.02 270 283 317 390 298.02 298.01 379 313 332 352 380 437 486 548 594 601 551 525 601 488 494 416 457 520 485 470 438 368.1 381 431 419 503 448 466 504 566 643 657 702 751 803 737 649 670 746 837 931 921 802 671 724 829 822 767 701 702 635 592 570 564 597 586 556 593 599 572 605 640 576 576 534 559 523 503 425 423 415 461 439 504 488 565 560 566 542 477 452 429 380 353 323 310 286 259 311 347 373 361 326 280.01 377 444 370 326 447 415 360 362 383 331 294.01 328 313 360 363 481 519 528 411 492 432 456 454 416 358 296 279 261.01 266 263 249 247 243.25 243.24 243.24 243.24 243.24 243.24 243.24 257 272 279 273 257 243.24 243.24 243.24 243.24 243.25 270 243.27 243.28 250 258 262 264 268 293 303 289 288 280 275.02 278 289 304 329 319 352 349 315 322 313 347 309 309 344 407 499 521 433 387 398 356 324.01 336 377 329 318.11 318.1 321 332 318.07 326 318.05 318.04 318.03 333 318.01 368 379 371 438 456 460 450 401 318 313.02 373 337.01 376 410 431 482 508 452 452 481 449 435 405
396 372 342.01 354 377 377.01 399 401 453 449 535 585 527 458 404 379 346.02 348 365 338 294 291 315 289 281 286 250 259 253 260 245.09 245.09 245.09 249 270 272 366 306 261.03 265 313 332 314 346 333 312 291 281.02 315 318 309.01 319 359 375 351 350 340 336 367 326 319 333 351 339 339.01 339.02 339.03 353 394 340 352 373 422 481 498 542 529 474 488 431 434 421 402 395 397 404 432 396 399 393 374 302 309 302 296 300 340 347 299 310 277.01 308 278 275.01 283 266 252.1 252.09 265 272 277 268 260 258 275 277 256.03 256.04 258 283 266 258 269 279 286 259.01 259 256 266 248 245 266 243.2 243.2 283 279 270 243.2 292 260 296 287 270 260 314 374 372 317 291 287.02 357 398 342 286.03 342 367 365 367 303 273 300 310 266.01 288 257 252 234.18 234.18 245 285 270 255 238.02 238.03 238.04 259 292 259 271 315 331 363 298.02 298.02 352 387 339 366 379 450 490 559 554 597 584 611 564 574 539 531 524 537 514 554 496 449 381 381.01 384 430 432 432.01 465 573 626 668 636 715 726 717 617 647 686 748 933 904 811 727 745 813 867 724 646 598 629 580 546 552 585 534 538 549 587 554 571 596 620 660 647 634 586 546 521 456 454 509 481 563 577 649 709 663 528 489 424 388 373 368 323 279 269 257 277 300 339 305 283 280 341 354 299 338 456 358 332 350 346 310 294 313 297 293 338 427 456 478 440 395 414 406 389 385 333 278 269 285 261 248 252 252 243.24 246 243.23 243.23 245 243.23 248 263 260 265 251 246 243.23 243.23 243.23 253 255 273 269 252 243.29 261 255 263 287 287 314 306 317 310 292 281 312 333 345 368 416 444 404 406 368 372 348 326 366 406 512 598 460 382 381 361 324.02 341 375 332 327 318.1 318.09 318.08 318.07 318.06 353 318.04 318.03 318.02 330 318 371 343 382 406 442 371 366 339 313.01 358 398 436 493 517 524 472 436 456 492 482 439 460
369 342 375 428 412 398 425 441 433 481 556 562 582 522 425 377 349 346.01 346 402 350 287.02 287.01 287 270 269 259 245.12 245.11 245.1 280 245.1 245.1 260 245.12 295 299 268 261.02 270 320 336 382 348 374 379 306 281.03 281.03 309 333 367 386 345 358 329 332 332.01 340 339 337 330 330.01 343 346 339.02 357 370 357 339.07 378 389 399 418 449 452 481 455 461 428 366 373 418 375 352 342 389 344 335 323 319 297.02 297.01 297 316 340 296.01 296 291 290 295 317 282 309 275 285 270 252.09 252.08 252.08 279 252.06 269 277 256.01 256.02 270 262 280 284 265 248.01 248 267 275 264 281 255 243.24 243.24 261 256 275 243.19 258 267 270 243.19 267 279 286 273 303 256.02 311 345 307 328 287.01 314 337 333 368 302 286.02 295 295.01 353 330 331 243 290 266 288 255 250 234.17 237 262 242 238 238.01 269 238.03 283 291 264 301 285 306 337 344 357 298.03 347 367 396 414 413 441 460 493 523 542 677 664 671 602 531.01 578 615 622 571 649 602 575 477 430 402 393 463 480 478 505 563 537 610 622 615 593 572 612 635 674 745 834 770 768 796 832 780 694 634 582 562 585 573 515.01 530 547 507 546 558 572 530 559 541 584 639 655 673 662 605 519 551 588 589 605 633 569 527 503 475 420 380 353 321 308 314 295 276 252.14 262 274 283 313 299 255.01 263 271 286 320 376 306 330 403 339 318 284.04 296 319 287.01 324 385 457 477 463 415 386 408 359 340 346 317 275 254.01 254 246 243.26 243.25 243.24 243.23 243.22 243.22 243.22 243.22 250 259 266 262 244 243.22 243.22 243.22 259 261 261 268 249 245 249 243.3 246 262 274 304 287.01 292 310 328 301 324 310 324 388 412 420 444 526 534 526 496 413 371 373 413 473 459 390 349.01 349 332 324.03 325 347 327 320 318.1 318.09 327 357 355 321 318.04 345 348 332 310 301 339 331 387 408 371 313 313 334 344 369 406 493 535 468 426 400.01 400 425 431 443 404
324 352 349 380 414 438 414 425 471 458 487 508 506 478 416 362 394 371 417 463 384 331 287.01 345 312 245.14 245.13 245.12 255 258 303 273 250 245.11 245.12 245.13 261 261.01 261.02 274 309 349 368 386 345 317 294 290 292 291 295 336 350 384 327 350 342 332.01 357 356 344 350 349 347 354 339.03 353 346 339.06 343 372 377 369 362 421 436 443 429 412 405 336 357 383 366 364 337 320 314 297.05 297.04 297.03 300 297.01 297.01 305 340 299 307 270 277 278 303 305 283 275 275 274 255 252.08 252.07 270 252.05 262 256 269 275 302 295 276 248.01 251 261 266 244 254 267 254.01 272 255 243.23 265 290 248 243.18 257 268 266 243.18 243.18 295 250 256 256.01 270 302 316 312 287.02 304 287 286 302 355 324 286.01 317 305 301 329 292 288 235.02 235.02 275 252 268 234.16 234.16 234.17 234.18 257 258 284 252 306 290 300 345 345 307 336 372 371 374 362 354 363 363.01 389 405 432 481 511 579 594 665 651 600 540 595 658 658 684 720 666 595 536 475 415 409 409 450 499 485 485.01 527 551 578 556 591 567 591 624 667 665 711 669 668 646 728 752 702 668 625 580 540.01 541 515 526 499 491.03 502 510 566 512 551 521 540 586 632 720 682 620 633 654 617 629 661 666 664 600 505 454 397 365 332 322 315 285 274.01 274 290 252.13 281 324 320 306 276 255 252.11 279 350 305.01 354 421 437 335 299 284.03 284.03 287 296 297 347 396 441 464 398 393 359.01 411 408 368 314 280 283 266 254 263 249 243.24 247 245 243.21 243.21 243.21 243.22 268 252 245 243.21 243.21 243.21 243.21 254 259 251 256 244.01 264 248 243.31 289 284 278 296 316 293 309 326 341 354 340 378 489 495 494 469 522 583 641 539 474 428 409 469 474 440 366 366 376 382 347 325 353 328 336 351 331 322 356 375 361 344 326 347 336 306 297.1 297.1 344 345 337 322 323 297.1 308 340 374 376 408 464 427 412 400 428 392 376 433 433
337 413 381 389 438 443 414.01 465 502 478 495 476 445 463 398 416 433 436 450 461 388 301 380 364 330 262 252 245.13 245.13 274 320 275 283 255 245.12 263 268 261.01 290 261.03 307 317 333 396 380 328 290.01 291 327 300 333 295.01 326 319 321 349 357 359 352 346 368 358 351 347.01 358 353 339.04 339.05 339.06 357 342.02 342.02 350 363 369 397 418 389 364 352 322 345 354 330 322 325 297.07 297.06 297.05 307 323 358 314 307 324 327 315 288 298 269 265.01 279 279 274 290 285 279 267 262 260 252.06 252.05 252.04 252.03 252.02 262 252 264 272 248 253 253 272 269 243.25 256 277 254 264 243.22 268 252 253 266 243.17 251 256 243.17 248 265 247.03 283 272 305 333 331 305 307 331 315 287 271 318 286 289 362 307 288 281 333 320 251 235.01 290 279 236 234.15 234.16 252 264 264 279 271 256 263 323 386 401 340 375 351 407 362.02 362.01 374 392 408 369 367 394 453 432.01 479 564 516 562 604 578 615 670 737 766 751 675 658 647 567 462 440 448 409.01 449 559 547 575 527 568 530 524 562 554 587 593 572 603 663 599 612 596 678 673 691 700 634 584 551 540 498 493 491.03 491.02 494 500 517 517 482.01 489 505 563 581 635 571 606 628 591 536 613 649 662 683 595 607 557 511 423 388 344 344 303 301 289 269 252.12 291 306 309 270 260 274 252.1 273 305 314 468 531 423 341 292 284.02 284.02 290 321 286 300 333 343 374 438 390 361 374 404 328 284 264.01 268 256 258 253 248 249 257 243.2 243.2 243.2 243.21 248 251 243.2 243.2 243.2 243.2 243.2 243.2 243.2 243.21 243.22 247 250 244 243.32 254 279 274 310 309 300 345 346 330 386 395 401 453 545 589 560 527 652 622 668 608 521 505 485 546 533 464 414 413 440 441 375 340 351 332 362 360 329 324 330 329 328 315.01 315 314 352 331 297.09 297.09 325 310.01 315 306 297.09 297.1 321 303 341 389 446 480 446 428 360 369 373 390 426 452
417 376 419 469 456 517 460 478 478 486 451 438 415.03 416 436 490 447 463 464 397 365 349 453 381 301 270 250 252 308 286 300 319 277 301 245.13 265 285 273 293 309 266 322 388 409 347 336 363 303 336 333 351 323 305 309 340 361 349 377 346.01 346.01 351 360 376 375 362 339.05 339.05 339.05 339.06 343 342.01 347 372 355 351 369 409 450 449 414 358 316 315 327 343 311 302 333 318 409 399 433 348 316 380 314 288.01 327 333 296 266 265 258.01 258 254.05 254.04 254.03 254.02 254.01 254 257 252.05 252.04 252.03 252.02 252.01 252 243.31 243.3 243.29 260 261 260 260 243.24 262 251 276 253 250 243.21 260 277 271 243.16 243.16 256 243.16 244 250 249 247.02 278 280 286 311 299 284 281 291 285 244.01 244 248 266 256 268 282 257.01 257 267 235.01 235 276 253 234.14 234.15 241 321 304 291 283 271 299 292 275 369 406 443 448 472 486 400 391 377 374.01 428 429 447 404 433 432.02 432.02 486 534 573 621 618 598 692 771 825 847 734 677 574 536 495 559 496 428 517 558 566 526 514 483 488 522 527 571 542 550 521 536 538 590 541 591 586 598 645 651 640 587 547 508 499 501 500 503 491.01 491 482.01 482 490 488 533 572 625 597 526 508.01 523 500 517 526 571 554 605 650 688 603 605 531 518 460 452 385 327 306 264 252.11 267 268 287 288 309 262 252.09 252.09 298 338 437 493 408 309 284.02 284.01 303 305 284 285 291 312 361 419 392 368 331.02 415 379 347 305 271 264 274 243.22 243.21 243.2 243.19 243.19 243.19 243.19 247 248 259 243.19 243.19 243.19 243.19 243.19 243.19 243.19 263 249 248 243.23 243.24 247 244 253 253.01 301 313 347 346 323 395 422 407 479 543 580 599 722 751 722 687 640 618 612 619 585 625 594 550 444 416 433 370 418 382 369 355 367 368 388 342 327 328 353 350 315.01 334 336 308.01 317 297.08 297.08 332 310 313 297.08 306 330 300 341 387 363 386 432 367 376 375 348.01 425 415 386 426
361 382 381 455 482 491 571 538 478 464 462 439 415.02 415.02 452 475 441 426 452 411 385 386 469 433 297 253 264 250.01 291 360 345 312 303 299 250 245.14 283 298 320 304 316 287 340 370 370 399 366 325 359 333.01 352 329 355 340 328 347 374 386 356 346.02 347 354 368 373 360 361 341 352 339.06 342 380 342.02 342.03 342.04 350 368 380 411 427 413 372 331 311.03 311.02 311.01 317 360 368 357 464 458 424 368 345 341 300 316 342 335 294 308 278 277 258 279 291 284 272 272 258 284 252.05 288 259 262 265 298 296 260 243.29 243.28 243.27 243.26 244 243.24 243.23 262 270 246 243.2 248 271 265 272 269 243.15 246 243.15 249 252 255 247.01 253 251 303 264 259 268 257 281 303 267 264 240.01 240 279 256 293 332 281 250 243 259 234.13 234.13 234.14 251 261 350 360 299 302 286 313 286 321 294 359 419 409 386 410 405 393 409 428 412 412.01 429 459 469 437 462 527 539 550 631 662 633 690 718 770 808 708 626 574 553 565 602 577 428.01 516 505 535 508 476.02 502 489 493 528 528 544 525 497 478 509 534 503 534 536 550 581 637 647 558 534 568 518 520 533 539 510 519 501 500 466.03 488 520 560 641 594 544 585 508 489 467 537 565 523 568 624 670 557 537 508 546 534 473 436 360 312 280 252.1 256 263 268 269 308 280 252.08 252.08 287 350 363 409 373 324 303 284.01 284 273 288 265 294 308 353 404 407 361 349 331.01 331 351 364 328 283 269 264 246 252 245 243.18 243.18 245 243.18 256 243.18 243.18 243.18 243.18 243.18 243.18 243.18 268 264 275 271 246 254 263 244.01 255 290 316 320 313.01 313.02 345 394 468 516 553 649 683 614 672 786 857 726 650 584 570 569 605 686 522 489 447 440 442 392 369.01 389 355.01 355.01 355.01 399 379 377 332 320 336 329 329 328 376 317 308 298 297.07 305 324 302 297.07 317 329 348 334 368 348 389 364 347 332.02 348 378 473 394 400 369.01
465 407 493 429 429.01 489 567 540 534 531 469 432 444 415.01 453 506 499 481 405 490 488 417 384 315 285 291 287 262 250.02 338 404 353 306 303 287 245.15 286 333 367 377 333 386 393 364 397 385 367 403 359 335 364 374 361 387 351 351 375 365 370 365 363 347.01 364 385 365 358 355 376 342 342 357 348 349 358 373 406 453 470 414 399 354 351 339 353 366 366 436 429 373 430 452 457 376 374 353 316 389 352 335 327 310 276 269 301 280 269 258.03 258.02 258.01 270 289 252.06 311 259.01 278 312 313 357 302 268 270 307 243.26 243.25 243.24 243.23 243.22 259 243.2 243.19 243.19 271 252 243.16 243.15 243.14 243.14 243.14 243.14 247 265 247 265 250 256 247 257 245.04 247 277 302 295 320 240.01 282 234.12 269 241 254 262 256 254 251 234.12 234.13 262 310 300 329 286 314 316 291 309 286.01 361 295 296 324 323 378 361 393 435 433 414 465 481 503 477 520 443 504 622 591 579 643 652 704 674 732 828 840 775 663 684 564 665 613 519 441 430 449 476 476.01 538 518 498 501 526 526.01 531 499 461 447.01 447 451 497 474 506 537 542 604 665 569 587 552 533 526 551 550 565 552 547 577 513 466.02 538 575 561 623 618 617 578 502 437 465 483 469 521 542 615 538 466 474 427 452 441 431 334 291 265 276 252.09 252.08 252.08 258 284 276 252.07 252.07 297 380 414 359 319 291.01 333 316 292 277 264.11 272 319 339 374 447 463 400 370 378 360 310.01 332 310 278 286 265 274 253 277 243.18 243.17 243.17 250 260 243.17 243.17 243.17 243.17 243.17 243.17 266 267 252 251 262 250 260 258 265 270 276 338 365 356 385 367 417 464 531 529 581 556 570 670 774 874 775 654 582 549 564 577 643 552 481 433 406 396 426 447 369 355.02 368 382 376 352 372 329 319.05 319.05 347 365 381 331 303 301 302 297.07 297.06 303 297.06 297.06 297.06 305 331 324 370 331.01 383 348 332.01 384 397 422 414 413 369 388
529 465 518 445 499 491 582 565 539 527 488 440 415.02 424 415 475 479 518 397 430 491 343 306 299 285.01 315 328 250.03 280 377 409 421 389 365 289 246 248 286 371 356 388 443 450 387 428 375 419 403 396 387 378 387 401 415 408 410 432 382 383 367 371 347.02 357 381 373 365 355.01 365 343 342.01 356 366 353 366 365 373 425 444 438 385 351.01 352 395 444 426 396 479 462 469 476 501 499 425 425 356 332 370 324.01 324 350 325 282 285 298 265 302 269 258.02 270 267 268 264 301 259.02 266 307 350 341 306 279 260.01 266 263 243.25 243.24 243.23 243.22 243.21 264 243.19 243.18 249 265 255 299 266 243.13 243.13 254 286 256 243.11 243.12 260 247 245.02 245.03 245.04 266 276 290 310 292 287 324 274 234.11 234.11 234.11 234.1 234.1 234.1 234.11 241 244 278 262.01 288 266 276 331 345 328 339 291 342 358 301 301 318 331 423 450 522 508 429 485 517 550 545 503 496 541 609 664 617 690 726 752 761 780 771 787 799 720 688 656 647 567 525 565 526 506 501 491 514 552 512 560 548 573 562 528 464 489 495 422 503 475 456 534 510 552 639 629 650 582 532 542 545 596 615 610 604 546 539 466.01 515 520 551 632 657 609 549 498 492 424.01 435 446 484 500 549 473 419 407 382.01 382 375 354 354 316 320 274 279 252.08 252.07 267 289 268 252.06 252.06 273 359 360 352 291 336 357 409 316 308 269 264.1 264.09 276 290 367 431 452 395 430 380 320 310 360 310 285 273 287 312 277 263 265 243.16 243.16 243.16 243.16 243.16 243.16 243.16 243.16 243.17 255 252 246 256 264 254 256 261 270 296 289 347 380 400 428 450 438 476 494 474 530 512 572 603 683 794 753 647 578 536 568 574 648 554 499 483 401 390.01 400 426 365 385 389 345 350 332.02 371 332 336 319.04 321 364 373 367 307 324 346 298 305 297.05 297.05 297.05 318 306 294.08 294.07 336 331 343 332 358 426 440 428 364 402 344.03 405
532 558 580 488 526 571 604 595 563 549 460 488 484 442 380 449 402 396 459 315 346 391 299.01 302 310 333 305 283 250.04 331 333 415 358 335 313 281 255 256 290 307 404 493 465 390 426 422 427 430 429 434 420 382 388 386 460 512 483 426 409 371 384 347.03 373 382 390 359 359 364 347 353 354 369 379 385 365.01 376 387 424 436 415 403 362 428 482 539 544 476 532 531 506 489 499 419 412 421 376 371 380 351 323 310 328 298 324 336 263.01 263 272 264 261.03 261.02 291 304 259.03 325 321 387 351 320 316 260 264 246 270 243.24 246 257 260 284 290 243.18 243.17 250 288 281 260 243.12 243.12 266 270 243.1 261 258 245 245.01 247 281 270 245.05 245.06 261 302 256.01 256 283 250 256 234.1 235 235 234.09 243 271 267 293 285 262.02 262.02 311 331 323 408 357 386 307 414 395 408 366 347 318.01 354 460 529 526 489 523 551 645 640 597 555 588 707 661 661 716 749 699 689 761 717 781 746 767 730 652 642 641 598 665 584 608 597 602 631 635 583 561 583 684 663 578 517 451 431 420.01 437 441 480 415 445 470 513 582 625 582 534 496 562 605 637 602 564 524 469 466 466 501 492 549 574 621 641 619 529 473 424 417 445 451 508 535 483 473 449 429 419 372 319 307 285 291 280 264 252.07 252.06 252.06 263 271 252.05 266 343 318 299 269 380 401 394 302 295 302 279 266 264.08 267 372 472 488 408 370 358 328 327 285.02 285.01 299 275 267.01 267 264 280 252 243.15 243.15 243.15 243.15 243.15 243.15 243.15 265 263 250 243.19 247 251 257 256 279 278 281 286 322 368 381 383 357 443 430 437 487 420 445 512 509 529 619 730 792 665 559 498 558 590 635 538 502 449 436 410 390 354 342.01 342 336 332.03 332.02 332.01 341 348 319.05 319.04 319.03 319.03 348 328 367 341 345 334 306 299 297.04 316 343 369 358 305 294.06 294.06 341 327 338 379 401 378 395 344.02 396 424
545 574 618 554 584 571 591 594 587 579 599 491 458 464 384 330 339 390 450 329 297 304 313 319 342 325 316 250.05 250.05 263 340 370 355 315 304 296 256 255.01 255.02 297 333 448 456 409 425 417 397 418 380 362 386 335 358 377 426 422 477 479 416 390 371 354 351 354 359 370 365 356 356 353 373 355 374 421 409 446 442 467 456 435 388 391 448 497 551 566 472 490 471 437 419 429 433 389 448 422 384 422 405 349 330 319 317 290 309 265 287 270 261.04 261.03 274 261.01 261 269 283 291 360 293 285 348 267 252 274 274 249 253 262 253.01 265 311 243.18 243.17 243.16 260 243.14 256 243.12 243.11 257 243.09 243.09 243.09 251 250 259 256 258 245.06 271 258 260 294 277 280 250.01 284 289 244 234.09 234.08 234.08 261 256 260 278 262.03 267 276 272 339 387 372 393 345 352 375 457 439 437 386 416 387 354.01 384 449 427 538 632 602 589 661 639 668 611 625 635 674 710 621 711 666 658 640 644 681 770 743 717 742 705 754 738 737 768 770 704 731 638 620 592 682 681 586 541 501 444 437 420 404.01 433 429 402 443 460 547 656 571 523 481 496 567 603 582 572 531 562 507 450.01 450 466 497 556 610 664 585 469 435 420 397.01 473 507 471 529 539 504 451 431 391 337 317 332 320 337 335 291 252.07 252.06 252.05 254 265 252.04 272 303 282 262 280 321 391 429 331 300 279.01 327 317 264.07 264.07 308 434 488 459 369 378 395 318 332 343 310 297 293 276 262 264 275 243.14 252 243.14 243.14 243.14 243.14 272 265 251 243.18 249 244 244.01 246 259 265 271 285 302 361 346 302.01 302.01 323 369 316 338 383 397 422 497 427 522 554 642 729 588 519 460.01 477 575 655 567 521 524 492 467 446 391 381 366 352 374 403 343 332 325 319.05 319.04 319.03 319.02 329 319.01 363 416 403 346 334 305 297.03 307 319 351 369 351 294.06 294.05 314 328 347 424 386 365 367 344.01 389 449
500 548 622 638 610 571.01 571.01 578 629 595 607 497 486 398 393 318 319 359 356 297.01 310 278 288 319 316 300 250.06 262 250.06 275 308 300 294 321 294.01 294 271 286 263 280 335 427 358 337 394 364 369 356 328 321.01 321.02 321.03 323 340 372 414 427 454 426 392 372 408 385 376 377 372 363 360 369 355 380 366 404 425 456 465 446 422.01 422 405 388.01 415 477 561 512 520 455 408 416 408 402 381 379.01 406 431 488 457 445 457 394 395 436 323 304 279 269 280 286 280 287 261.02 261.01 261.01 261.01 324 315 362 281 267.02 267.01 272 275 262 249.01 262 274 253 262 268 262 244 243.17 243.16 243.15 243.14 243.13 243.12 243.11 243.1 243.09 243.08 243.08 247 243.08 243.08 288 309 248 275 255 261 261 272 302 251 251 270 242 240 264 234.07 234.07 234.07 285 295 293 302 269 351 347 372 437 411 371 436 453 481 508 522 474 483 446 404 390 384.01 393 480 529 490 602 670 617 580 664 652 627 638 629 582 593 576 573 573.01 674 759 687 764 816 820 812 689 707 752 890 808 756 801 749 731 693 676 740 692 586 489 472 463 447 426 404 393.01 393 406 425 502 656 560 512 523 431 495 545 602 612 602 600 579 498 459 441 425 579 569 593 612 534 510 460 397 433 528 541 504 450 423 475 474 415 408 387 354 368 419 402 321 262 252.06 252.05 252.04 252.03 255 297 271 255.01 276 276 325 444 438 335 307 303 316 350 324 264.06 317 353 449 412 374 359 362 377 330 322 293 314 308 305 260 294 251 243.13 251 243.13 243.13 243.13 243.13 273 251 250 243.17 243.18 249 259 274 249 254 273 272 277 310 354 302 304 340 311 286.01 286.01 332 387 435 428 371 478 536 589 697 618 555 460 470 584 672 609 609 612 589 518 514 449 406 398 376 410 423 387 387 351 329 332 319.03 319.02 319.01 319 361 392 379 368 311 297.03 297.02 297.02 322 306 361 341 361 315 294.04 298 331 363 361 365 344 350 374 420
536 568 558 619 589 580 584 579 523 496 575 524 544 467 364 305 300.02 300.01 310 321 333 283 255 250.1 253 259 250.07 319 252 279 290 299 281 294 318 339 289 360 304 292 280.01 280.02 358 340 322 321 311 326 321 333 359 362 413 344 346 390 433 452 423 440 427 381 404 379 376 370 378 375 366 396 397 430 442 447 505 526 480 441 429 392 409 451 532 534 446 433 389.01 389 360.02 360.02 360.03 379 389 423 406.01 468 556 589 533 491 487 442 429 333 321 315 301 296 280.01 290 261.02 283 261.02 261.02 294 343 319 292 275 270 269 273 279 257 260 244 243.22 243.21 245 243.19 243.18 243.17 243.16 255 243.14 243.13 249 243.11 243.1 243.09 247 243.07 243.07 243.07 243.07 249 243.07 257 248 261 258 263 289 283 268 245 242.01 243 234.06 238 234.06 234.06 234.07 308 316 347 321 269.01 368 355 356 360 347 342 344 400 443 434 435 366 436 463 523 464 460 437 431 462 515 540 542 538 538 601 564 583 610 545 590 529 549 601 640 647 643 596 661 723 674 674 642 611 669 762 817 927 963 923 808 820 714 783 729 635 551 504 447.01 475 450 454 429 410 377 416 455 551 579 465 499 472 410 471 483 616 681 628 587 565 457 497 398 483 536 528 564 563 489 489 431 370 415 449 530 501 424 398.01 424 443 446 377 336 300 304 307 321 267 269 252.05 252.04 252.03 252.02 252.02 255 283 347 300 348 422 398 316 310 323 337 355 293 264.05 323 363 341 374 414 338 298 325 312 294 263 268 264 287 254 259 264 266 243.12 243.12 243.12 243.12 268 264 243.16 243.16 243.17 243.18 252 261 267 253 276 284 283 305 348 272.02 272.02 283 340 298 286 365 321 328 356 356.01 369 453 459 492 548 564 519 438 437 501 564 582 700 765 668 592 528 518 451 428 417 465 482 531 433 387 346 319.04 319.03 333 348 337 313.01 368 363 361 340 317 312 297.01 297.01 337 357 327 339 304 294.03 330 331 313 342 357 317 283 348 364
574 542 589 564 579 651 679 662 603 472 472 475 432 404 335 304 308 300.01 300 307 328 294 250.11 284 250.09 250.08 250.08 295 297 285 293 297 281 280 313 322 311 340 292.01 298 280.02 280.02 280.03 282 316 291 286 292 368 366 396 457 406 386 401 380 407 432 446 430 431 422 403 386 380 380 411 413 371 390 427 441 504 493 530 557 491 469 430 416 439 481 497 440 417 409 399 396 360.01 360.02 364 416 412 481 466 441 534 550 575 477 453 485 498 435 358 322 287 286 280.02 282 286 266 261.03 271 298 314 270 301 263.02 274 275 260 264 259 244.01 253 243.22 243.21 243.2 252 243.18 243.17 243.16 243.15 258 254 271 250 243.1 243.09 243.08 256 243.06 243.06 244 243.06 256 247 243.08 243.09 249 277 287 271 258 252 245 260 234.05 234.05 234.05 239 238 259 284 352 367 341 340 323 363 399 356 327 297 334 417 387 359 387 363 416 512 484 402 458 461 457 463 505 543 563 491 536 535 560 558 543 576 524 534 558 615 615 546 546 583 625 620 656 564 640 706 688 769 902 872 989 931 883 777 826 761 699 583 533 507 524 561 501 457 448 371 395 415 454 545 440 462 485 407 397 443 532 639 668 613 531 452 413 381 400 508 473 559 538 458 407 405 363 385 401 447 478 472 398 398 399 418 378 332 301 272.01 272 269 286 252.06 252.05 286 274 275 252.01 252.01 300 315 321 360 344 383 320 289 306 326 329 290 264.04 326 307 301 303 305 271 299 300 312 279 281 258 245.01 263 244 245 250 253 243.11 243.11 243.11 243.11 249 249 243.15 249 248 253 249 254 256 258 273 278 276 277 288 272.01 333 280 280.01 280.02 296 350 396 399 480 435 360 408 406 411 479 467 461 410 416 449 476 536 579 788 812 728 638 579 510 495 545 551 532 498 442 390 319.05 319.04 319.04 387 381 376 317 313 335 304 306 294.04 307 304 297 350 331 305 294.05 294.04 294.03 294.02 294.01 295 324 327 329 282.02 305 297.01
539 572 573 582 543 570 649 620 557 460 394 384 345 346 330 342 300.02 325 316 280.01 285 279 250.12 260 342 269 250.09 295 303 270 294 264 264.01 306 283 285 305 311 292.02 304 280.03 280.03 280.03 318 282.01 282.02 312 345 423 432 467 487 421 464 398 380.01 429 457 502 467 447 409 402 401 384 406 441 400 394 405 437 475 531 534 588 532 510 477 470 437 466 489 479 416 371 398 370 360 382 363 413 474 514 495 517 462 505 509 499 438 427 405 457 385 377 326 304 304 281 312 295 280 274 292 291 272 274 265 272 263.01 263 259 256.01 256 261 268 252 243.21 267 268 261 243.17 243.16 248 287 294 248 257 243.1 243.09 250 256 255 243.05 243.05 243.05 243.06 243.07 273 292 297 297 282 267 238 246 234.04 234.04 234.04 234.04 263 297 324 273 305 337 346 288 262.04 304 359 385 378 289 303 403 429 434 400 342.01 378 419 425 407 399 451 458 491 520 554 489 518 478 542 510.01 544 508 483 544 498 496 563 538 660 581 503 551 599 562 574 540 641 631 654 748 755 763 997 1009 968 865 854 885 769 595 557 618 627 581 624 530 445 409 366 369 421 471 452 430 446 409 388 453 519 618 701 660 598 480 405 370.01 370.01 458 459 535 495 460 404 398 396 343 441 470 431 425 419 377 378 396 361 342 312 319 312 298 253 252.06 252.06 276 300 268 252 259 303 287 322 290 291 351 303 296 282 310 293 271 264.03 290 324 287 267.01 267.01 288 327 312 289 269.01 269 277 254 245 254 243.09 250 255 243.1 243.1 243.1 243.11 243.12 254 243.14 243.15 243.16 243.17 259 259 263 272 271 256.04 263 263.01 272 316 353 350 324 344 321 440 488 490 549 542 469 398 398.01 398.02 413 405.01 405.02 405.03 412 441 465 515 557 663 780 808 801 714 561 651 640 552 524 518 477 341 319.05 360 369 370 409 374 323 329 294.05 294.04 294.03 294.03 297 295 290 334 379 362 314 313 294.03 294.02 300 294 320 305 282.01 306 297 326
507.01 522 585 645 612 494 537 549 478 465 400 374 368 332 361 345 316 300.03 329 280 323 258 261 264 271 296 303 263 263.01 271 263.03 266 264.01 280 287 283.01 304 300 292.03 331 288 305 280.04 292 288 284 287 360 417 421 458 461 460 514 411 380.02 431 452 522 479 450 404 403 421 395 433 468 400 416 469 503 515 552 565 551 520 504 507 469 443 463 434 407 397 368 392 367 351 366 419 451 407 481 408 430 433 512 527 487 460 403 375 380 372 326 340 362 324 285 294 283 282 260.03 277 285 291 270 280 307 285 275 256.02 257 256.01 256.01 263 267 243.22 275 273 257 243.17 294 294 298 279 272 243.11 243.1 256 253 251 243.06 243.05 243.04 252 244 256 285 331 284 263 248 236 234.04 234.03 238 234.03 234.03 234.03 264 297 262 285 252 290 301 262.03 293 300 342 344 319 265 370 374 336 351 375 342 349 320 320.01 364 489 503 457 522 479 511 496 464 445 510 518 511 511 467 506 478 490 490.01 577 638 609 554 480.01 570 494 490 537 559 580 664 660 664 755 855 973 978 957 981 865 712 703 644 751 657 656 670 539 462 429 378 345 366 414 480 393 406 396 359.01 424 461 528 624 693 612 600 482 394 370 406 423 404 514 461 385 347 389 341 376 408 457 430 382 358 405 369 340.01 340 346 305 329 318 269 262 262 257 270 264 250.11 253 308 271 314 266 309 374 310 293 277.02 277.01 277 345 323 264.02 315 295 267 280 313 365 331 294 269.01 269.01 274 272 267 243.08 243.08 262 269 243.09 243.09 243.1 243.11 243.12 243.13 243.14 249 246 244 254 265 270 259 256.03 264 290 282 334 376 425 382 425 434 349 447 571 539 638 596 553 446 398.01 398.02 405 447 436 431 451 427 469 506 567 668 885 896 859 753 648 643 577 518 452 431 394 349 332 364 363 426 399 380 355 335 306 294.04 294.03 294.02 309 332 280.04 347 373 387 383 346 335 341 301 290 273 282 282.01 322 346 338
593 551 595 666 641 534 442.01 474 520 436 391 340 314 361 351 314 328 335 317 261 260 277 283 344 281 313 298 266 265 263.02 263.03 300 264.02 289 368 319 294 331 311 305 294 323 294 294 385 323 332 377 338.01 394 389 440 481 524 431 405 433 464 529 456 418 458 467 485 458 471 473 419 434 474 497 502 467 499 502 450 435 441 471 457 420 402 371 365 392 364.01 378 395 348.01 374 391 395 460 395.01 461 437 477 477.01 568 439 434 397 365 385 331 301.04 343 325 306 285 262.01 262 267 260.02 290 283 302 276 292 292 290 272 267 256.02 287 285 278 265 273 266 244 243.18 254 256 253 281 279 243.11 243.11 245 274 280 272 278 263 243.03 267 284 261 282 249 247 257 265 258 248 234.02 234.02 234.02 234.02 238 245 247 247.01 247.02 262 276 262.02 284 270 288 298 289 262.08 286 292 292 277 271 309 309.01 343 398 412 442 466 422 445 483 416 452 445 487 436 494 456 528 492 441.01 523 534 616 583 591 561 514 545 480 479.01 530 490.01 531 548 596 596.01 612 654 709 795 824 996 1006 932 890 844 777 867 779 810 723 648 520 452 432 343 337.01 338 439 363 358 416 414 359 434 453 481 660 577 510 462 446 371 328 323 447 499 446 414 355 319 317 348 373 359 411 393 349.02 349.01 354 421 411 355 424 300 289 293 280 269 264 256 279 250.1 259 305 268 265 295 331 371 302 287 277.02 292 346 315 295 264.02 264.01 265 255.05 264 274 309 333 315 290 281 269 250 253 243.07 244 245 245 243.08 243.09 243.1 243.11 254 243.13 243.14 248 243.16 249 260 258 269 256.02 256.02 298 341 319 374 350 387 491 548 453 402 478 604 684 720 715 620 484 439 451 417 455 523 515 533 512 471 519 570 636 866 958 1025 910 811 787 710 615 582 548 458 397 361 378 398 462 434 443 367 323 307 294.04 318 321 294.01 294 280.03 292 306 308 339 337 325 295 289 282 262.05 282 305 305 343 386
536 514 576 664 617 522 453 442 472 393 353 343 348 289 295 292 330 273.01 273 311 313 311 360 322 325 356 340 296 301 312 289 299 264.03 319 398 318 309 334 326 336 330 361 310 328 344 439 449 338 338.01 341 357 451 471 503 468 478 486 516 574 448 437 564 578 554 503 492 514 458 479 453 468 491 460.01 485 466 455 434 428 425 455 423 401 407 364 415 364 366 392 348 377 388 415 448 395 408 450 480 490 566 441 369.01 415 371 319 301.03 301.03 309 309 327 286 309 272 270 260.01 273 260.01 291 291 306 318 290 286 313 299 316 289 291 277 259 270 243.19 291 243.19 250 272 287 252 254 246 266 275 326 301 343 282 243.03 243.02 265 243 228 225.14 254 299 309 295 278 238 234.01 234.01 244 269 273 271 259 280 295 262.01 262.02 262.03 262.04 262.05 262.06 262.07 262.08 262.09 262.1 262.11 267 318 344 341 370 356 387 398 401 421 431 468 413 426 418 406.01 456 434.01 439 481 457 441 572 602 626 571 605 549 467 484 479 485 544 569 520 564 620 678 742 717 729 783 824 950 1079 1076 1065 923 910 966 903 864 785 704 555 541 465 390 348 337 366 353 368 352 399 321.02 374 402 454 508 562 470 427 366 347 315 314.03 364 404 449 466 382 389 317 306 353 336 385 371 349.02 349.01 349 382 442 398 406 361 328 320 268 253.02 253.01 253 257 250.09 262 299 258 311 377 410 363 311 297 306 324 363 302 340 270 264.01 264 255.04 256 290 302 321 284 272 280 290 276 243.06 246 243.06 243.06 243.07 243.08 243.09 243.1 243.11 245 243.13 243.14 243.15 243.16 243.17 248 257 259 256.01 272 383 312 328 374 344 416 482 531 509 454 575 763 823 819 736 625 563 457 497 479 514 582 607 597 592 552 517 614 706 806 899 890 856 771 698 668 567 552 512 463 424 361.01 375 458 452 405 389 396 376 328 307 325 321 303 297 291 280.02 280.01 307 299 313 361 316 296 270 262.04 262.04 268 288 330 326
508 563 618 648 637 576 454 409 365 349 373 309 385 325 273.04 273.03 273.02 273.01 334 396 379 312 380 370 378 325.01 382 391 402 299 334 303 264.04 322 362 322 349 335 335 345 376 362 329 386 398 400 345 338.01 338.01 338.02 423 494 546 533 553 556 623 633 505 461 519 581 630 600 542 517 481 470 450 429 457 502 460 461 497 479 418 404 399 433 425 450 459 398 361.02 361.01 361 378 326.03 415 450 502 401 381.02 384 478 483 460 462 444 378 369 378 312 301.02 301.02 320 319 339 301 279 270.01 281 269 260 295 278 290 283 314 297 289 346 352 298 277 262.01 262 267 254 243.2 277 277 268 281 267 260 255 272 262 262.01 278 297 287 260 264 243.02 243.01 244 225.13 261 306 271 363 364 259 237 234 282 261 310 294 287 302 294 283 296 317 296 306 297 281 262.07 272 271 308 302 267 285 305 316 364 367 402 430 431 444 463 442 402 412 406 414 434 477 455 412 422 470 494 511 553 543 541 560 467 433.01 433.01 473 533 628 600 520.01 673 717 789 835 856 842 899 944 1000 1043 1089 1036 1022 1074 980 837 775 732 658 556 487 411 362 354 325 345 334 321 441 367 321.01 373 431 465 520 522 448 366 315 314.02 356 432 448 456 434 406 360 301 341 379 345 326.01 393 386 358 360 336 371 361 335 322 320 298 265 263 271 259 250.08 252 272 278 257 282 314 316 348 317 298 321 336 330 302.01 351 270 298 265 255.03 256 276 306 316 316 284 262.01 270 256 243.05 246 243.05 243.06 243.07 243.08 243.09 243.1 243.11 243.12 253 243.14 243.15 243.16 243.17 243.18 243.19 256 256.01 307 319 276.01 289 329 356 378 422 565 574 574 596 702 806 892 859 733 629 495 457.01 593 623 672 704 698 657 621 577 576 642 782 918 879 813 725 668 623 547 484 463.01 472 381 361.02 436 536 561 489 453 438 382 353 333 328 315 306 307 306 280.02 280.01 280 287 341 345 324 297 272 262.03 262.03 262.03 302 304 308
544 614 616 637 565 513 484 486 473 461 325 313 305.01 305 277 308 307 328 306 381 377 314 378 466 369 344 390 467 350 395 299 280 264.05 328 288 290 364 429 366 410 453 368 417 379 406 341 338.02 338.02 402 450 431 440 462 526 576 545 528 493 474 558 598 662 634 692 647 495 441 426 421.01 421.01 473 434 427 458 486 502 450 432 398.01 398.02 398.03 411 425 380 386 413 379 326.02 326.02 385 464 402 381.01 425 382 425 402 497 470 412 369.01 377 360 313 301.01 301.01 387 389 388 334 328 311 293 259.06 259.05 283 277 287 273.01 274 333 324 346 346 288 273 276 274 265 307 262 293 268.01 279 285 286 300 307 270 285 266 284 272 249 247.01 247 250 243.02 283 225.13 225.12 230 270 276 274 248 229 225.12 225.12 260 279 279.01 335 346 347 357 332 380 318 333 297 284 281 288 314 355 337 343 381 413 379 383 403 404 417 451 563 550 444 407 372 367 414 401 429 465 428 385.01 401 422 527 552 515 524 496 452 433 447 535 540 620 595 547 595 648 685 770 809 873 833 851 876 901 1008 1039 997 955 908 785 706 662 565 543 496 386 404 408 366 317.04 317.03 317.02 329 391 325 321 353 406 459 479 476 393 314.01 333 369 356 407 434 383 335 308 303 286 337 326 338 350 329 330 321.01 321.01 321.01 328 352 344 300 263.02 263.01 263.01 284 250.08 250.07 250.07 269 251.01 287 304 318 313 330 375 355 368 363 376 371 323 326 365 328 265 255.02 259 273 288 300 282 288 262 272 243.04 243.04 272 272 251 244 243.09 243.1 243.11 243.12 243.13 249 243.15 243.16 243.17 243.18 251 262 284 293 276 316 313 363 402 501 513 478 522 560 547.01 578 659 709 705 652 549 501 464 521 592 699 792 894 810 687 661 642 676 806 915 866 848 812 746 650 560 548 498 496 428 460 483 560 572 506 511 443 410 372 342 350 332 336 287 280.03 308 377 317 272.05 298 306 294 293 272 273 262.02 277 262.02 298 321
515 576 640 682 615 517 548 473.01 527 478 365 348 375 352 339 283 316 388 360 366 396 314.01 408 523 421 374 385 397 413 463 306 264.06 272 281 324 339 335 445 387 472 451 444 410 487 392 341 338.03 341 381 512 462 455 467 504 622 554 502 474.01 517 625 712 743 719 700 622 482 439 438 422 421 464 426 422 429 459 420 384 398 412 401 450 440 448 370.01 370.01 432 396 357 326.01 400 461 393 381 456 399 367.03 465 553 496 485 467 450 395 319 324 301 364 400 371 358 320 286 292 259.06 280 259.04 286 273 286 313 377 365 363 338 361 391 334 277 300 327 295 303 284 270 315 318 321 296 298 288 263 261.01 261 259 289 267 284 312 258 242 250 225.11 241 268 298 279 253 252 225.11 250 284 305 319 297.02 305 355 346 382 376 315 289 328 331 358 365 364 311.01 337 369 387 375 348.01 393 396 454 434 503 497 479 467 436 391 353.01 409 420 489 404 385 385.01 460 503 484 475 520 493 402.01 520 522 521 559 604 624 621 603 595.01 595.02 595.03 725 739 728 728.01 729 790 889 884 836 775 724 675 647 560 496 473 439 422 368 343 326 334 339 358 317.01 317 311 295 375 472 403 465 431 338 314 350 363 313 376 421 367 364 374 358 310 284.05 305 293 307 321 388 350 321 371 382 349 381 335 300 263.02 263.02 332 269 266 250.06 251 262 287 294 286 292 347 377 368 355.01 373 330 340 323.01 354 396 314 273 255.01 261 278 287 264.02 300 330 329 261 243.03 274 282 283 268 244 243.1 252 243.11 243.12 243.13 247 243.15 244 243.17 243.18 243.19 261 264 297 274 305 295 337 409 508 522 492 540 547 562 654 769 772 733 696 607 550 494 574 668 770 882 873 806 774 757 771 784 848 848 826.01 826 798 724 626 623 614 535 517 504 537 525 605 555 513 486 406 372.01 372 320.01 320 328 345 296 310 310 380 327 291 272.04 272.03 272.02 272.01 272.01 298 262.01 262.01 262.01 262.01 292
598 545 533 652 580 572 558 524 530 507 445 398 383 313 316 291 362 421 463 360.01 467 359 482 503 389 386 391 459 488 441 351 374 290 272.01 336 331 353 467 437 436 492 492 510 470 388 338.04 338.04 400 446 585 513 455.01 476 559 627 592 521 505 564 677 827 783 716 653 590 561 476 465 426 407 381 367 386 397 412 438 408 351 396 340 416 385 375 370 386 443 413 371 326 371 414 395 367 403 367.02 382 477 508 428 461 439 434 411 377 344 295.01 301 342 385 338 272 264 315 264 265 259.03 259.04 294 306 312 358 337 361 364 332 381 307 343 341 310 287.01 287 316 294 302 290 311 310 313 296 269 278 265 296 339 333 312 270 248 225.11 225.1 240 255 269 287 239 251 225.1 241 229 303 330 297.01 309 378 339 362 374 394 391 376 386 360 449 418 368 311 353 349 379 356 348 386 411 475 514 529 489 426 422 442 420 357 353 402 384.02 384.02 398 419 443 406 384.07 404 503 461 402 556 576 640 652 621 684 662 696 694 671 658 650 670 730 728.01 781 825 913 960 851 765 702 679 600 545 529 491 432 396 363 392 351 365 382 350 330 348 376 294.04 307 367 384 404 380 321 280.07 328 360 307 357 401 414 442 476 433 363 288 284.04 292 363 333 360 319 341 415 380 351 412 347 276 263.03 275 371 293 273 250.05 259 251.01 255 286 277 335 401 395 401 408 364 337 323.02 323.02 355 404 345 289 256 255 278 289 264.01 284 300 340 291 244 243.02 243.02 281 276 256 243.11 266 243.12 243.12 243.13 243.14 259 243.16 243.17 251 243.19 265 277 273 261 279 312 345 442 467 489 480 560 578 634 751 801 833 780 782 687 618 586 565 678 778 870 813 788 768 837 925 893 864 841 889 928 852 739 691 631 564 517.01 542 603 612 641 613 537 498 442 436 416 386 359 332 301 299 296.01 335 382 362 338 301 303 312 350 309 280 314 301 262 262 265 276
552 522 537 607 520 458 454 518 476 432 402 404 349 366 306 311 420 397 475 394 492 416 448 435 442 423 449 473 401 394 309 277 272.02 281 300 354 385 472 543 516 511 555 507 424 348 357 347 390 495 507 563 530 513 619 596 533 532 539 659 705 864 793 671 580 532 516 495 444 468 464 378 398 342 374 389 392 373 386 348 325 390 338 327.01 333 388 465 429 400 374 325.01 375 359.01 395 367.01 406 450 520 476 452 396 425 413 366 363 320 295 312 352 379 362 323 290 262 259.02 259.02 259.03 270 276 311 322 359 337 294 312 315 338 355 348 327 290 311 304 282 289 297 298 277 269.03 269.02 269.01 271 274 300 314 306 297 285 256 264 272 247 225.09 225.09 260 254 263 225.09 230 238 281 247 323 297 356 317 335 348 359 430 434 503 482 388 395 383 380 288 296 358 336 330.01 330.02 402 454 487 505 502 495 432 425 413 348 327.03 364 392 384.01 384.02 400 414 384.05 384.06 413 401 401.01 401.02 453 432 541 614 648 725 681 690 733 678 629 651 725 790 787 792 835 927 934 1009 969 886 814 715 617 558 621 584 475 428 423 376 415 424 372 398 380 350 402 316 294.03 294.02 356 429 327 341 328 280.06 290 292 339 357 406 489 515 408 338 332 295 284.03 302 343 327 313 344 342 384 286 294 310 263.04 281 313 358 274 250.04 260 266 284 267 255.01 291 400 385 404 410 423 400 349 323.03 336 355 349 324 301 245 236.08 249 267 264 269 293 305 298 312 255 243.01 243.01 275 246 251 251 247 243.13 243.13 243.14 245 257 246 260 243.2 257 318 292 256 311 317 378 386 441 407 441 495 595 612 704 750 794 798 791 795 763 649 565.01 634 702 762 770 771 790 859 868 784 781 807 818 855 844 794 726 633 590 571 579 716 731 744 615 531 493 465 438 399 369 347 344 346 317 335 349 348 372 359 331 320 361 388 357 313 330 312 262 257 308 315
490 527 464 473 469 498 421 445 434 409 384.01 396 373 306.01 306.01 338 421 453 534 492 531 431 449 484 485 447 435 445 373 329 290 273 295 364 412 379 450 496 593 612 584 603 461 389 389 409 392 433 491 548 551 593 630 642 563 545 532.01 542 680 798 900 829 736 713 651 550 529 532 476 434 430 433 355 338 353 351 410 403 381 385 307.04 327 370 343 419 412 398 382 350 325 376 359 400 427 485 522 469 453 390 365.02 439 391 417 352 301 279 266 271 288 313 298 284 259.02 259.01 264 293 259.04 297 303 330 320 345 309 289.01 340 295.01 336 320 327 334 317 292 303 279 289 274 285 274 283 278 304 345 344 314 336 338 334 333 261 247 233 225.08 243 275 252 228 225.08 225.08 257 284 281 247.01 250 276 286 394 384 410 502 563 565 501 422 428 396 292 277 264.09 264.1 330 386 414 440 474 494 466 463 456 428 404 365 359 327.02 396 384 389 393 384.03 384.04 431 483 520 512 470 438 421 428 473 547 646 697 600.01 699 723 683 580 645 705 724 801 841 905 998 1017 1053 1038 1051 930 803 682 726 793 734 583 533 511 432 437 456 442 392 440 393 377 331 328 294.02 294.01 294 285.01 286 320 280.05 282 300 342 402 407 396 446 380 316 308 371 326 284.02 299 312 306.01 310 339 295 294 275 263.05 282 324 365 328 250.03 250.03 279 334 381 351 278 340 373 416 426 409 425 361 371 356 378 319 326 316 280 275 236.07 239 263 256 297 302 277 265 261 275 279 243 248 269 265 256 255 258 248 243.14 258 278 295 273 267 251 251.01 251.02 269 294 371 404 455 346 342 427 495 525 573 623 616 699 627 627 727 734 738 691 727 771 761 730 712 774 779 737 681 706 723 737 777 836 867 806 683 640 632 656 695 683 632 638 606 535 472 444 370 349 327.01 337 343 310 305 320 333 346 370 355 380 346 342 311 310 286 304 291 290 238.32 283
436 405 462 422.01 429 441 458 366 390 473 416 384 335 341 408 356 360 453 506 598 476 483 497 492 455 413 389 391 368 338 289 287 331 430 460 427 501 509 523 591 619 569 458 398 400 468 475 492 544 599 622 672 660 590 630 566 532.02 589 668 745 833 883 795 700 630 580 536 533 478 441 400 387 367 336 326 356 394 328 376 346 351 307.03 324 398 416 353 407 355 334 309.03 309.03 318 409 423 447 449 433 437 377 365.01 414 364 333 331 318 287 258 254.02 267 263 276 276 263 278 259 311 267 277 316 289 309 315 301 289 295 306 306 346 327 351 342 304 282 276 271.02 273 295 277 327 333 341 366 365 353 365 406 349 277 274 242 225.07 225.07 227 275 268 228 225.07 225.07 225.08 262 293 318 294 298 362 391 413 384 428 485 456 508 450 378 406 322 264.08 265 304 364 439 465 428 477 422 463 427 480 412 390 327.01 327.01 327.02 454 513 512 473 398 445 434 480 553 509 511 506 495 445 508 566 581 631 600 672 609 576 549 576 670 743 825 877 895 916 1020 1140 1161 1109 943 823 747 853 779 717 710 639 621 500 475 543 510 460 457 458 418 390 387 329 310 326 340 285 280.04 280.04 304 294 347 357 338 324 373 375 329 354 356 342 284.01 297 317 310 306 301 287 282 269 285 280 337 366 328 250.02 250.02 293 369 361 304 300 347 393 391 394 364 376 393 360 335.01 335 318 287 270 268 263 239 236.06 246 240 284 273 283 270 258.01 266 264 235 245 269 290 256 268 273 243.15 252 256 270 279 303 278 280 273 251.02 251.03 263 301 339 364 285 369 432 437 482 549 517 552 557 563 671 696 753 708 664 736 763 752 739 724 699 723 669 631 647 673 719 762 761 779 807 705 619 649 621 670 685 656 553 527 479 465 422 429 384 347 327 311 325 308 296 324 303.01 331 350 378 363 389 325 326 298 272.01 297 257 238.31 280
390 427 451 436 422 401 441 360 342 404 348 396 335.01 349 374 447 380 360.01 434 485 500 506 599 557 453 430 361 350.01 350 338 287.01 333 402 419 482 503 449 456 491 512 553 512 506 505 436 489 523 547 602 648 664 654 619 607 679 650 586 547 723 882 963 986 915 781 710 602 584 532 501 420 461 428 363 348 334 320.03 320.02 320.01 320 317.01 317 312 307.02 325 351 335 370 383 352 309.02 309.02 336 353 383 439 402 385.01 420 413 367 365 351 301.01 301.01 304 335 321 310 254.01 270 269 246 267 259 247 270 264 234.03 261 320 370 309 296 268.01 291 316 331 354 347 323 298 320 331 284 271.01 271.02 280 347 388 371 352 396 378 428 436 385 306 335 240 231 239 225.06 225.06 270 253 228 225.06 225.07 229 257 315 319 359 299 331 335 360 402 420 438 371 381 454 386 334 264.07 312 272 367 369 385 426 397.01 445 430 420 448 441 363 341 327 327.01 396 424 473 545 530 455 493 503 515 543 539 547 565 535 473 445.01 505 556 546 601 562 534 519 587 620 688 777 779 809 892 992 1094 1232 1257 1128 956 842 877 943 867 771 724 725 577 515 482 604 592 495 488 554 507 467 394 406 329 284.01 284 293 280.03 280.03 340 294.01 328 299 307 317 341 308 305 313 333 325 319 284 325 293 282.03 282.02 282.01 285 333 327 349 396 352 278 250.01 255 329 327 324 349 319 361 375 354 359 367 400 384 350 335.01 365 347 330 302 330 309 281 264 236.05 236.05 264 274 259 262 261 258 237 229.39 288 288 284 273 268 267 259 248 258 274 292 322 291 270 252 284 285 251.04 270 283 308 283.02 339 390 427 399 470 424 440 524 597 579 666 720 730 629 673 684 750 719 696 678 652 609 593 590 644 704 734 702 697 718 690 609 583 578 608 666 604 577 513 499 528 498 401 373 352 324 385 372 309 283 303 311 329 351 351 333 335 337 296 281 298 272 264 238.3 267
443 453 410 410 387.02 445 433 411 347 335.04 335.03 335.02 335.02 452 475 506 473 382 454 501 538 561 583 537 427 386 358 406 455 405 293 293 405 369 443 454 407 454 503 580 714 700 643 509 508 534 555 639 538 545 582 555 529 546 604 710 630 580 701 749 848 958 832 750 752 641 563 528 515 431 404 408 381 395 354 351 332 340 370 345 339 323 307.01 336 352 379 309.01 345 369 309.01 371 386 440 443 382 395 385 413 401 360 331 383 353 301 308 323 301 277 294 254 240 234.06 243 245 234.03 234.02 234.02 241 240 276 315 296 286 268 348 367 376 338 313 331 305 294 287 271 284 291 298 317 324 361 394 410 401 446 445 422 389 299 275 264 245 225.06 225.05 284 259 225.05 241 264 275 334 316 340 308 271 307 372 372 406 356 335 299 356 389 319 264.06 334 384 314 403 350 380 397 405 434 399 403 407 395 344 322.04 333 390 389 481 534 586 590 546 530 550 559 610 614 565 615 567 517 504 461 461.01 488 473 554 509 610 631 640 618 720 853 933 970 1035 1157 1247 1135 1163 1055 1053 1092 1030 847 769 724.01 738 709 575 532 619 649 600 490 525 517 522 554 462 381 314 284 280.03 280.02 289 328 317 301 265.01 269 305 297 307 293 286.02 286.01 307 286 271 325 334 292 282.02 296 300 296 366 404 348 322 266 250 285 271 318 326 295 290 354 343 334 374 410 394 400 378 391 389 417 386 377 324 289 303 249 250 236.04 261 266 261 247 295 243 229.38 229.39 264 311 284 274 259.02 259.01 263 269 259 266 285 318 284 274 305 336 344 266 289 293 283.01 305 326 323 377 312 360 384 383 392 525 561 548 533 578 617 651 655 650 686 610 564 633 614 597 557 616 613 654 645 636 656 641 653 624 595 538 608 579 519 497 456 481 430 376 355 334 354 372 377 309 309 279.01 311 336 310 320 345 357 310 299 270 263.01 314 273 238.29 271
493 508 425 387.02 387.01 406 438 485 427 359 387 382 434 509 503 550 531 482 494 454.01 521 537 641 575 464 410 395 515 458 382 350 397 293.01 348 424 369 433 552 554 614 659 613 534 507 534 539 545 557 510 480 506 492 504 526 589 686 710 645 631 705 765 975 893 750 701 656 633 574 494 438 384.01 384 391 370 351.01 358 332.01 385 393 396 348 387 323 307 334 359 332 309 314 309 361 449 421 435 390 343 357 377 372 312.01 343 404 329 300 271.01 307 294 277 256 240.01 245 269 234.05 234.04 234.03 234.02 234.01 236 260 246 255 287 247.01 278 288 323 320 289 301 286 278.01 278 289 251.01 295 283 263 282 290 342 358 337 390 404 377 357 353 285 242.01 244 225.07 225.06 228 225.04 225.04 268 272 281 260 275 299 298 279 252 268 374 309 362 328 372 271 324 353 264.05 358 404 381 321 348 354 370 368.01 373 412 432 365 404 365 329 322.03 333 359 388 440 531 480 560 579 619 610 597 565 619 635 639 540 586 528 541 478 461.02 464 471 489 502 515 533 642 772 836 966 1006 1098 1196 1178 1075 1153 1094 1106 1069 1083 934 835 788 783 690 578 567 609 573 581 493 487 487 475.02 520 523 447 319 286 280.03 280.02 280.01 295 305 278 270 265 301 299 293.01 295 320 299 286 259 290 323 294 296 333 323 397 337 338 363 310 350 281 249 244.01 280 350 295 279 279.01 284 302 308 378 468 464 435 405 405 383 439 426 375 305 314 250 238 236.03 252 261 254 260 246 261 229.37 256 282 291 288 276 259.03 259.02 265 278 286 294 310 279 318 313 299 293 329 340 324 327 320 283.02 283.02 283.03 283.04 283.05 311 322 322.01 352 382 474 459 442 520 563 562 550 569 571 570 507 506 545 568 571 555.01 604 574 600 601 580 586 570 660 608 560 526 541 549 501 443 412 434 406 343 342 318 314.01 325 354 328 309 279 311 300 322 310 379 373 336 303 287 263 271 274 238.28 240
468 544 449 396 387.01 387 386.01 386 359.01 359.01 370 400 413 513 557 613 597 543 493 457 485 571 658 504 441 414 443 562 461 354 438 436 302 314 327 385 463 563 502 519 559 522 489 485 537 564 536 485 467 463 458.03 494 493 511 570 664 767 726 712 705 779 914 908 791 743 642 649 608 509 505 399 411 358.01 358 368 358 372 362 356 412 421 413 350 295 297 337 347 321 283.02 328 410 375 358.01 411 387 340 344 428 334 312 344 349 305 292 277 271 262 257 263 246 300 289 268 248 277 256 249 234 241 239.01 239 247 254 287 286 330 314 276 271 286 295 299 270 251 267 255 292 263 294 275 312 324 338 401 309 302 291 275 248 242 230 242 231 225.03 255 228 225 216.28 216.27 226 231 247 286 241 281 320 287 321 282 287 264.02 293 264.04 264.05 347 292 292.01 310 373 400 414 411 368 376 379 350 378 322.02 322.02 322.02 342 379 431 484 477 484 483 500 541 538 556 500.01 556 587 640 591 606 552 591 504 467 504 483 522 504 549 606 726 790 830 862 926 1092 1187 1061 1028 1133 1049 1009 981 1003 962 896 875 782 722 644 701 682 581 518 511 452 508 475.01 475.01 485 449 303 280.04 280.03 280.02 280.01 280 281 253.03 253.03 253.03 313 370 323 296 297 286.01 301 257 273 294 331 315 345 332 376 370 352 289 310 333 310 301 274 244 276 268.01 287 287 385 338 346 449 521 538 503 453 403 355 394 399 412 335 273 253 276 236.02 247 281 238 229.33 249 243 229.36 234 266 291 276 289 267 267 303 307 286 315 322 321 294 321 301 338 336 338 348 336 298 283.03 292 310 353 363 335 327 363 350 350.01 389 394 379 421 452 449.01 449.02 477 464 464 467 449.07 509 547 608 563 555 574 553 560 567 564.01 580 622 615 537 478.01 478 505 500 466 452 387 354 349 317.01 317 314 314 338 311 312 283 278 289 287.01 348 359 349 295 315 299 271 238.27 238.27 255 238.29
466 545 475 388 418 449 423 387 387 359.02 390 457 502 597 630 634 592 622 516 532 517 556 652 486 447 491 565 528 407 459 380 316 344 333 337 364 432 547 459 420 437 493 467 483 539 550 562 537 481 458.02 479 461 504 514 567 620 728 824 789 747 749 887 866 876 780 615 532.01 589 574 525 459 428 385 402 389 368 342 333 364 360 405 401 380 313 288 290 371 312 283.01 319 401 361 358 408 381 337 316 354 335 302 332 353 342 320 272 275 260 257 246.01 290 304 342 324 262 281 270 254 231.19 240 251 257 231.15 234 245 259 287 321 329 268.01 268 304 262 275 291 250.07 267 250.07 272 260 293 347 351 334 381 323 329 303 256 230.02 230.01 235 255 278 225.03 225.02 225.01 231 226 225 216.26 216.25 255 262 232 298 336 314 269 264 264.01 264.02 264.03 264.04 278 264.06 309 293 351 377 384 348.01 348 313.05 352 324 358 360 354 322.01 403 332 402 435 419 439 400 434 447 500 582 578 534 500 553 617 635 611 583 583 538 498 467.01 467.02 491 491.01 534 568 589 649 714 753 895 1000 1074 1039 1006 1086 1053 1025 971.01 1008 1017 979 881 846 741 676 589 626 656 538 488 434 490 475 486 490 491 365 358 323 280.02 289 295 268 255 253.02 253.02 289 328 322 282 299 286.02 314 256.02 271 287 292 326 323 367 332 335 376 286 272.01 294 284 235.1 235.1 235.1 268 380 402 346 402 381 420 460 510 466 470 446 383 359 347.01 347.02 440 364 293 253 248 236.01 251 279 229.32 243 229.32 250 229.35 261 270 261.01 319 287 256 288 320 304 324 314 308.01 308 311 334 364 403 393 376 370 364 340 355 322 329 378 335.01 387 349 430 474 398 372 372.01 453 427 449 449.01 449.02 449.03 449.04 449.05 449.06 449.07 465 553 591 580 577 538.01 548 586 581 633 564 586 572 549 574 533 470 534 498 422 430 347 358 333 343 306.01 307 301 303 297 303 270.01 287 318 351 360 321 262 256.01 289 252 261 238.26 248 257
585 561 488 439 474 513 410 375 359.03 359.03 424 431 462 522 638 616 654 622 608 620 536 598 633 567 561 518 497 492 495 512 429 373 319 374 442 434 480 425 418 389.02 441 437.01 489 483 491 529 523 501 560 458.01 493 469 475 523 610 694 797 769 716 656 666 754 748 749 763 718 639 532 439 406 399 385 383 362 349 346 356 365 322 337 368 420 375 309 286.02 295 380 288 283 376 370 327 361 367 409 390 339 292 343 294.01 337 344 327 321 296 287 262 284 250 250 255 267 255.02 283 270 301 301 272 231.18 231.17 231.16 231.15 231.14 231.13 231.13 290 282 285 314 272 243 291 274 276 256 250.06 291 251 277 279 304 329 364 322 409 389 374 304 255 276 287 281 301 272 245 241 250 267 264 244 252 216.24 256 258 224 309 242 216.23 276 264.01 264.02 264.03 336 316 334 295 328 400 403 405 385 369 376 313.04 313.04 338 313.04 322 338 330 394 336 336.01 347 370 420 515 569 637 537 503 476 431 482 535 554 619 597 577 523 548 523 536 496 565 641 628 641 672 665 734 891 950 958 979 983 1053 1036 971 1025 1104 1022 964 1033 890 874 798 678 580 577 594 471 420 468 495 574 541 482 429 421 467 350 350 349 313 263 253.01 278 286 273 279 295 323 293 304 280 256.01 274 309 340 341 298 303 279.05 292 294 292 272 257 235.09 235.09 235.09 274 403 428 403 445 454 532 551 521 410 488 418 379 347 360 403 363 345 258 241.01 253 236.01 236 255 229.31 229.31 229.32 240 229.34 233 261 318 282 232 305 291 291 302 299.01 320 375 337 392 369 414 471 480 431 404 402 430 438 454 461 416 396 434 453 528 532 509 485 474 453 466 479 525 522 536 518 501 453 514 553 583 614 630 612 603 538 576 577 520 532 601 640 579 597 567 427 484 358 395 400 374 335 333.01 348 313 306 295 313 294.02 298 270 281 285 340 294 302 256.01 256 259 238.25 238.25 238.25 238.25 250
549 491 485 466 410.01 410 405 359.04 359.04 359.04 406 464 450 532 590 542 630 666 638 650 623 617 649 598 541 589 479 441 433 492 486 379 319.01 358 501 457 438 359 439 389.01 453 468 496 523 550 529 537 548 517 472 458 443 481 522 643 764 791 715 663 613 588 658 681 693 694 677 645 530 455 427 445 416 414 371 374 365 330 324 318 348 369 380 362 302 286.01 316 336 287 278.1 348 374 305 334 399 380 340 328 288 308 328 294 343 325 303 283 270 286 299 278 290 263 255.01 255.02 268 288 265 260 251 285 251 244 278 272 248 231.12 251 233 231.1 266 238.01 273 261 271 272 297 250.05 263 288 257 284 300 290 290.01 320 307 314 353 347 315 254 277 305 360 299 287 255 269 272 297 272 249 216.23 230 216.22 216.22 253 227 216.22 275 264.02 272 265 356 408 418 372 413 408 358 327 322.02 348 367 327 313.03 313.03 352 446 401 357 364 353 406 376 401 467 532 566 551 490 478 427 461 481 538 585 601 569 568 545 523.01 546 571 519 611 687 726 759 739 772 867 926 924 883 880 902 978 969 996 856 959 882 926 1077 984 979 973 750 613 533.01 533 508 446 406 467 492 529 482 430 401 472 354 349 322 333 267 253 290 290 270 249 259 269 290 262 256 257 287 331 366 343 308 279.04 299 292 305 286 253 277 267 235.08 235.08 307 366 439 458 484 502 533 511 437 386 483 380 356 329 337 428 368 293 243 252 241 255 236 229.3 229.3 229.31 229.32 229.33 249 229.35 229.36 254 242 230.01 238 300 330 299 312 299.02 344 415 398 382 443 478 553 529 489 442 510 548 569 503 447 477 468 523 542 574 608 578 577 545 513 534 507 557 608 588 547 508 603 622 644 671 636 603 534 526 588 595 497 480 560 564 548 587 517 450 405 369 341 371 339 344 337 333 292 287.01 293 312 294.01 309 280 266.01 289 302 268 257 286 297 246 238.24 238.24 238.24 254 250
550 456 434 426 458 474 362 359.05 359.05 359.05 418 534 512 517 532 505 569 633 609 616 629 619 684 633 558 507 483 396 396 403 417 412 341 413 412 395 361 341.05 389 447 459 489 563 544 553 566 588 596 462 442 431 456 495 576 708 731 703 774 732 706 559 597 635 610 650 724 653 610 435 435 448 471 406 400 378 342 358 352 317 310 346 370 358 349 286 293 309 299 278.09 337 301 344 350 403 382 375 305 326 283 282.03 306 334 299 276 272 282 324 278.01 291 284 258 267 295 280 273 292 288 254 283 277 263 260 240 231.13 231.12 231.11 231.1 231.09 252 238 275 261.01 290 300 301 250.04 250.04 250.04 277 293 272 308 306 331 330 298 308 304 290 304 248.01 319 290 356 350 303 327 313 314 295 281 219 216.22 216.21 216.21 216.21 216.21 235 305 275 312 271 310 394 451 458 486 420 392 343 322.02 322.01 322 359 313.02 324 384 477 350 372 337 365 374 449 402 440 496 463 473 451 419 428 455 517 551 568 556 536 591 567 540 583 577 587 638 718 849 898 880 904 1001 1002 999 943 831 798 771 811 854 785 798 759 917 1005 998 1055 956 752 661 639 582 472 470 399 409 449 512 536 524 381 382 376 308 280 315 242.04 265 289 290 258 245.01 251 266 282 276 247 267 278 329 305 295 291 279.03 290 267 299 259 263 235.07 235.07 235.07 237 265 317 432 545 506 543 451.01 452 435 374 404 402 350 311.01 341 361 348 313 256 272 269 263 257 229.29 231 242 243 231 263 245 274 229.37 230 245 278 264 297 303 348 357 301 381 417 434 524 536 568 631 529 467 566 643 653 565 568 521 504 537 568 595 673 704 643 541 541 590 611 569 611 592 543 620 671 642 713 753 732 638 619 539 478.01 478 476 458.03 458.02 485 469 500 491 418 350 319 314.01 314 298 298 318 305 287 287 292 302 317 294 270 298 266 257.02 257.01 280 307 278 260 238.23 238.23 264 291 255
527 542 533 433 395 437 415 359.06 359.06 359.06 404 493 417.01 434 466 560 538 576 498 601 615 586 567 484 432 386 372 369 349 351 341.02 341.01 341.01 341.01 341.02 341.03 341.04 341.05 382 440 450 484 586 598 615 592 518 496 517 449 426 481 508 565 726 696 653 669 716 685 554 472 468 505 553 729 656 550 493 511 447 522 470 439 400 347 386 326 343 303.03 306 335 383 334 320 278.11 278.1 306 278.08 323 298 351 337 372 365 391 364 327 351 314 282.02 282.01 290 308 296 316 310 310 294 273 277 258.01 270 300 290 274 309 270 295 284 258.01 258 282 270 245 253 266 240 231.08 231.08 286 294 318 278 265 250.03 250.03 263 257 251 269 315 329 317 275 260 307 303 240 288 248 274 285 260 229.06 256 275 250 229.02 229.01 229 255 243 228 216.2 216.2 244 255 263 296 303 324 386 357 431 383 349 347 444 357 408 372 358 313.02 313.01 313.01 380 356 316 357 350 331.01 336 392 410 379 392 394 408 403 411 463 490 460 487 485 531 531.01 531.02 569 583 617 634 747 789 895 889 965 907 857 924 897 891 893 902 894 798 676 637 630 625 647 798 807 931 1040 980 782 736 635 557 508 415 397 388.01 398 443 390 407 397 341 351 390 355 244 242.03 252 263 290 311 287 245 259 261 258 243 274 270 285 279 279.01 279.02 314 339 297 259.01 262 272 235.06 235.06 246 275 296 348 319 395 468 546 486 451 361 352 347 370 315 311 313 317 279 298 239 275 266 246 229.28 233 240 259 249 255 256 280 263 229.38 229.38 241 263 292 291 342 470 430 352 344 439 472 509 621 683 660 613 560 574 566.01 620 668 621 609 667 711 717 679 721 720 662 688 752 714 718 702 672 578 665 712 684 646 726 769 785 750 762 655 524 572 485 499 475 458.01 458 437.01 437 474 405 383 389 378 358 284 279 329 279 311 310 308 321 324 294 270 302 298 299 335 353 278 271 238.22 243 275 263 292
409 482 566 440 385 359.08 359.07 429 361 359.07 360 417 485 504 541 556 486 485 527 539 503 519 483 502 446 419 379 344.01 352 341.03 341.02 341.02 341.02 341.02 341.02 341.03 341.04 345 358 380 408 500 604 665 621 566 475 464 471 444 417.03 491 474 556 631 618 646 576 667 615 593 577 461 466 558 683 569 498 473 550 502 519 493 430 402 362 416 338 329 343 303.02 327 392 341 303 328 278.1 278.09 298 278.07 291 355 310.01 359 324 377 307 313 303.01 346 302 291 282 269.02 278 298 285 312 283 273 261 259 273 282 318 314 308 301 288 331 294 276 244 242.02 242.01 242 232 231.07 231.07 231.07 264 280 300 297 278 296 250.02 250.02 250.02 265 278 355 334 335 293 279 255.01 305 232 277 229.12 271 252 229.07 229.06 229.05 229.04 261 229.02 229.01 229.01 229.01 233 216.21 228 216.19 216.19 227 273 240 279 355 339 373 426 338 303.01 375 415 422 462 460 369 324 355 313 350 305 362 306.01 331 387 409 358 339 376 440 426 375.01 375.01 421 466 481 478 478 466 541 560 563 574 637 622 707 852 945 957 992 926 896 836 899 882 840 818 816 841 854 821 750 674 612 612 649 699 759 957 903 736 766 612 516 433 441 466 399 388 436 374 351 360 288.05 302 350 317 253 242.02 282 305 297 313 284 275 230.31 246 236 236.01 257 275 262 282 280 314 360 294 306 296 272 235.05 235.05 239 236 247 252 269 297 335 419 490 414 376 334 324 302 291 288 284 273 243 273 277 235 253 233 230 229.27 261 263 259 273 272 255.01 286 252 229.39 241 282 274 316 334 412 505 418 349 344.01 513 542 571 612 697 626 573 625 613 594 666 746 711 737 778 830 794 801 826 806 751 748 826 821 773 731 638 651 761 745 685 683 732 804 804 738 737 664 564 620 562 614 601 534 541 501 458 427 393 383 370 364 366 296 261.09 286 270 288 311 317 294.01 307 280 280 331 350 324 328 293 261 238.21 238.21 238.21 256 311 307
473 424 494 470 459 372 361 423 371 359.08 359.08 386 453 456 468 498 480 437 451 471 540 560 498 478 459 407 369 384 344 341.03 341.03 341.03 341.03 341.03 341.03 341.03 341.04 352 362 395 428 511 613 730 677 576 512 493 433 424 417.02 445 489 505 500 563 538 556 664 607 735 672 459 454 533 642 531 441 460 544 561 476 422 389 365 402 391 331 312 308 303.01 377 384 320 339 387 323 278.1 284 278.06 278.06 310 313 346 315 331 285 305 303 338 333 313 318 269.01 288 285 274 270 259.03 259.02 259.01 259.01 301 324 290 312 278 271 268 274 285 244.01 249 283 242.01 271 262 288 231.06 233 280 291 355 315 267 270 250.01 250.01 299 325 332 368 383 326 262 283 255 258 229.12 242 229.11 259 242 229.07 251 263 256 229.03 261 251 288 241 263 271 275 231 216.18 216.18 216.19 230 287 297 281 332 362 303 374 370 344 402 375 375 375 408 386 352 279.01 354 376 306 327 352 367 330 324 354 399 445 383 375 421 392 417 417.01 417.02 441 484 570 600 570 601 545 713 810 851 939 961 954 895 820 841 817 849 822 751 817 917 810 721 615 516 694 706 703 756 882 823 678 701 653 545 510 570 470 402 381 440 391 328.01 328 318 288.04 289 283 293 242.01 266 268 322 289 273 258 230.3 231 244 244 250 244.02 248 270 345 386 410 372 278.01 334 250 235.04 235.04 235.04 235.04 235.04 270 311 297 358 422 524 460 479 495 426 401 370 345 291 297 257 229.22 256 231 232 234 229.26 229.27 240 246 251 259 285 262 293 254 233 229.4 246 281 302 377 454 553 452 369 352 456 492 508 537 601 634 645 671 615 615 707 758 756 788 825 810 836 841 880 936 929 912 939 903 759 750 683 762 789 725 699 736 783 812 812 790 780 738 580 608 637 642 650 550 559 628 513 421 454 397 372 368 339 304 266 261.08 281 317 344 294 328 345 297 298 327 302 293.02 293.01 297 278 238.2 238.2 238.2 273 284 288
532 436 438 492 499 429 377 362 359.09 359.09 359.09 359.09 399 396 385 386 410 449 482 542 466 444 435 391 378.01 378 446 439 471 383 351 353 341.04 341.04 341.04 341.04 341.04 351 368 407 502 585 648 794 647 549 483 476 460 434 427 417.01 419 468 409 449 492 624 548 654 647 530 438 401.01 468 510 466 409 445 495 445 504 439 389 395 364 425 323 295 303 347 431 406 336 369 350 316 345 322 278.06 278.05 302 301 301.01 344 320 293 272 266 278 280 295 276 275 269 260 259.05 259.04 264 286 279 282 278 314 300 278.01 306 287 273 265 244.02 244.02 294 285 267 260 262 285 244 231.05 251 289 296 333 290 250.01 256 250 322 298 292 307 355 312 257 244.01 245 234 229.12 229.11 229.1 230 229.08 239 306 305 319 297 256 301 332 303 305 275 265 232 216.17 230 249 237 286 306 253 285 299 334 365 323 312 383 369 397 372 352 324.01 324 294 279 312 257 259 315 279 295 343 345 353 386 394 327 341 419 461 464 442 431 483 494 567 456 512 522 631 816 932 1016 987 967 894 836 750 765 798 746 672 782 902 720 668 600 510 653 584 628 771 933 819 654 611 576 550 542 496 482 411 414 373 459 368 365 289 288.03 294 307 311 259 242 281 294 270 237 230.29 268 248 252 244.01 244.01 274 294 360 435 444 364 330 278 287 272 281 235.03 235.03 236 235.03 235.04 239 271 325 468 552 454 480 414 387 394 340 315 288 314 234 229.21 229.22 229.23 229.24 229.25 241 279 276 251 271 297 319 286 267 280 232 240 258 261 336 356 427 587 422 370 430 457 460 448 506 546 596 617 631 659 674 658 662 677 701 748 783 775 926 1014 1053 1101 1081 994 871 875 861 832 741 701 707 748 765 781 797 861 872 805 729 647 660 691 665 636 601 580 569 512 410 385 360 385 406 346 299 267 262 261.07 284 300 282 304 313 271.01 301 348 316 304 323 332 249 238.19 238.19 263 253 298 343
528 494 442 419 403 390 385 367 410 362 395 373 359.1 373 366.01 406 441 466 532 502 494 423 391.01 412 455 432 411 411.01 431 462 438 379 341.05 341.05 341.05 341.05 341.05 355 391 433 500 626 732 789 595 497 529 592 488 436 421 418 417 405.02 405.01 436 460 481 437 592 600 524 455 401 401 408 434 388.02 388.01 480 431 419 398 433 343.01 372 435 335 291.02 353 381 493 421 352 400 408 368 357 309 278.06 278.05 278.04 308 327 328 300 271 279 261 275 271 259.1 259.09 259.08 259.07 260 259.05 278 295 319 332 301 278.01 300 323 310 324 307 265.01 267 271 248 272 316 280 270 264 261 232 231.04 236 245 304 314 317 285 250 248.02 301 269 294 279 260 285 267 246 244 229.13 237 239 229.1 229.09 233 271 281 371 336 394 312 384 393 326 366 303 250 237 216.16 245 256 216.16 291 289 243 243 263 307 277 310 293 344 351 341 353 345 378 399 316 274 267 317 256 305 270 258 324 296 308 305 315 394 421 464 487 452 384 410 445 481 541 438 512 594 678 835 936 921 954 912 869 834 717 661 666 655 712 793 864 828 673 605 489 495 575 641 782 928 769 658 590 556 660 546 480 409 369 361 356 406 424 319 317 288.02 288.02 307 349 268 247 230.28 256 245 237 230.28 261 264 308 279 256 264 312 361 418 346 325 266 266 271 262 253 255 235.02 235.02 250 245 266 299 277 412 512 457 397 435 374 335 343 282 249.02 277 229.2 250 249 229.23 229.24 260 243 295 277 275 294 287 294 273 256 242 232.01 237 253 280 277 315 372 442 375 439 403 405 423 429 458 517 587 588 662 685 726 715 679 708 761 748 766 829 930 994 1024 1106 1076 976 968 995 993 936 738 661 661 671 687 771 815 894 888 900 811 719 715 722 587 564 598 585 611 530 457 378 382 343 347 297 304 261.06 261.06 261.06 261.06 291 294 262 326 271 319 358 364 356 334 336 274 238.18 242 257 323 334 298
561 552 488 469 437 405 404 425 387 368 498 424 365 366 366.01 386 381 415 421 495 492 450 441 489 571 560 484 477 418 431 524 421 397 341.06 341.06 341.06 341.06 355 393 460 561 688 785 812 559 552 578 635 474 436 457 480 502 467 422 405 397.01 397 438 531 561 468 455 376 370.01 370.01 432 388.02 408 388 384 372 372 402 365 343 373 362 291.01 367 399 448 358 327 401 353 363 348 296 278.06 286 278.04 278.03 278.02 278.01 278 268 264 270 260 259.11 259.1 267 266 259.07 259.06 287 281 302 313 310 317 297 311 326 304 287 265.02 265.02 295 278 301 256 287 270.01 291 260 257 251 243 231.03 231.02 231.02 284 328 282 248.01 259 260 263 244 234 230.03 230.02 230.01 260 229.14 264 229.12 229.11 229.1 254 347 474 392 422 368 390 412 432 412 420 460 339 262 221 216.16 216.15 216.15 247 238 262 293 216.15 233 283 262 246 292 294 288 315 364 406 406 367 381 329 283 255 251.02 251.02 251.02 251.02 251.03 274 292 364 339 386 405 504 475 400 375 442 446 497 453 405.03 501 592 645 755 837 839 912 921 877 837 765 625 605 582 667 713 779 767 657 526 476 506 557 661 732 836 757 656 575 543 626 619 575 456 367 332 338 419 376 316 292 288.02 288.01 305 317 330 261 230.27 268 240 244 230.27 245 282 312 290 280 286 297 369 412 354 301 239 238 231 260 213.01 244 235.01 235.02 259 288 258 258.01 286 338 516 509 409 353 371 367 306 299 249.01 268 229.19 236 278 246 229.24 229.25 261 262 266 264 284 273 278 262 254 247 242 247 255 254 257 293 353 417 427 496 512 522 518 548 520 458.01 556 672 711 714 762 741 753 759 769 840 896 889 916 951 1031 1169 1121 1099 1112 1120 1061 913 852 707 604 588 641 638 693 762 752 757 738 724 730 685 579 510 507 567 597 563 476 430 362 310 276 273.01 285 261.06 261.05 261.05 261.05 284 314 261.06 263 275 310 351 318 345 354 335 279 238.17 238.17 250 273 271.01 304
528 551 575 546 455 436 502 450 411 403 508 498 414 375 371 366.02 374 425 460 421 488 499 496 582 621 656 561 509 460 418.01 499 495 415 341.07 345 341.07 343 357 414 467 545 703 803 743 678 643 620 594 494 466 534 555 590 500 430 409 510 468 378 440 439 400 437 436 370 391 453 388.03 389 345 375 303 286 326 347 322 354 304 291 354 376 396 347 321 358 341 314 311 278.07 278.07 303 311 292 296 324 296 269 259.14 259.13 259.12 304 282 276 259.08 259.07 269 325 304 329 320 294 314 306 266 265.05 265.04 265.03 265.03 281 295 306 286 280 305 270.02 324 299 297 286 280 231.03 231.02 231.01 282 306 288 248 255 250 279 262 252 230.03 276 243 230 267 234 234 270 229.11 311 449 580 495 473 439 409 331 348 371 414 344 308 285 268 236 216.15 216.14 251 245 259 289 263 216.14 272 240 240 237 239 287 287.01 329 358 366 382 374 311 261 272 254 251.01 251.01 252 321 349 310 397 408 435 470 450 441 426 374.03 422 405 405.01 405.02 408 449 486 543 699 815 884 971 970 849 827 675 700 688 557 604 714 724 759 633 474 425 478 566 617 693 724 705 594 581 528.01 611 580 521 418 440 369 325 367 325 301 288.03 288.02 288.01 288 309 299 275 230.26 250 245 249 230.26 283 318 317 287 294 328 328 403 332 307 281 248 235 228 225 213 235 251 267 274 289 291 285 303 321 389 431 378 351 324 361 331 317 287 249 229.18 229.18 244 249 239 229.25 246 236 272 268 262 275 260 264 247.01 261 242.01 242.01 242.02 242.03 242.04 314 400 456 509 489 583 601 643 637 638 544 488 594 645 626 715 759 782 774 861 900 906 954 964 1049 1099 1185 1267 1245 1267 1259 1187 1083 934 792 697 566 555 585 673 784 723 699 685 739 705 675 632 532 492 433 484 476 457 447 347 367 362 273.01 273 261.06 261.05 261.04 261.04 261.04 261.05 281 326 250 296 313 299 343 394 374 272 238.16 238.16 241 271 272 296
429 466 532 511 461 515 538 564 471 424 454 500 506 400 463 437 410 395 396 514 470 421 443 536 609 638 592 622 560 465 479 565 475 361 341.08 341.08 344 379 412 448 496 629 754 796 704 596 563 542 512 579 610 556 516 562 508 522 516 477 360 401 397 468 399 398 342 433 440 435 407 350 304 302 303 284.06 284.05 344 300 284.03 313 407 380 358 278.13 278.12 278.11 278.1 289 278.08 278.08 282 278.08 319 339 395 384 344 285 280 268 282 267 259.1 259.09 287 261 298 281 286 351 310 284.01 310 287 300 278 308 275 265.04 316 310 323 314 303 325 291 309 328 323 308 262 237 233 231.01 231 259 291 245 242 262 246 289 230.04 237 259 235 252 252 245 257 320 258 338 452 501 525 416 377 332 319 274 267 242 238 239 271 227 216.16 216.15 216.14 216.13 216.13 216.13 216.13 219 216.13 216.13 216.14 216.15 231 251 325 340 397 454 424 389 358 321 359 312 285 251 254 294 299 250.06 325 310.01 366 410 495 449 402 374.02 374.02 374.02 413 428 435 473 534 580 600 663 837 912 840 970 836 795 779 689 619 546 581 605 644 614 550 533 423 486 467 508 557 644 656 507 528 544 555 516 454 383 334 302 301.03 301.02 301.01 303 288.03 288.02 303 295 278.02 292 297 251 230.25 245 230.25 247 266 311 354 339 363 394 394 372 316 285 240 258 231 236 219 211.2 223 233 262 272 243 243.01 249 254 282 309 373 325.01 325 325 317 314 323 269 240 233 229.17 244 240 254 229.26 229.26 240 236.01 252 282 278 276 255 263 269 245 256 247 242.03 355 416 486 480 559 596 602 595 623 636 644 592 507 514 535 620 658 681 632 649 672 729 786 799 884 978 1056 1134 1194 1171 1172 1192 1183 1119 993 854 713 729 630 553 509 597 550 577 584 650 658 597 580 469 462 410 416 396 372 351 347.01 391 346 321 319 281 264 283 261.03 261.04 261.05 264 298 246.04 276 259 264 298 331 353 249 238.15 238.15 242 253 304 322
432 478 509 509 536 633 515.01 601 545 478 459 486 530 501 501 534 457 419 395.01 398 435 417 444 533 575 686 707 648 569 465.01 504 576 465 377 341.09 341.09 358 387 414 494 524 675 803 738 631 556 535 596 621 677 662 620 549 486 503 573 468 442 361 336.01 390 440 375 449 339 390 418 349 319 316 369 350 327 302 289 284.04 284.03 284.02 341 317 322 343 278.13 291 311 295 278.09 278.09 278.09 278.09 286 319 318 351 376 376 313 305 294 279 266 275 290 264 300 302 301 316 331 284.01 284 316 306 278.01 318 311 287 270 304 321 341 371 358 337 318 287 277 283 262 259 233.01 265 248 238 230.15 245 286 256 234.02 249 283 230.05 230.05 230.06 268 327 302 290 252 310 308 306 366 481 419 366 365 342 330 298 282 271 221 216.19 218 216.17 216.16 216.15 216.14 216.13 216.12 216.12 216.12 216.12 216.12 242 242 253 267 304 328 387 399 388 382 356.01 376 401 400 333 272 250.06 250.05 251 250.05 285 310 378 399 438 444 429 374.01 374.01 374.01 407 459 478 482 484 535 502 505 623 746 835 801 999 851 803 701 635 541 503.02 519 516 550 533 554 475 395 442 415 450 554 645 622 492 519 492 541 534 444 394 319 326 332 327 392 306 288.03 328 338 293 278.01 288 264 271 230.24 230.24 234 246 268 319 345 373 430 401 375 318 303 294 272 231.01 264 219.01 234 211.19 220 250 236 241 265 273 278 278 292 323 383 372 327 276 328 292 279 305 229.16 236 229.16 242 261 241 247 246 248 266 236.02 282 276.01 285 269 276 260 255 262 250 274 342 404 510 564 607 597 586 462 495 531 531 612 629 627 554 564 571 604 698 711 746 802 828 852 918 1024 1132 1169 1160 1110 1109 1127 1126 1113 959 846 774 863 694 611 569 505.01 519 547 538 558 614 645 598 524 467 401 374 347.04 347.03 347.02 389 388 324 294.01 297 285 261.03 261.02 279 294 266 266 285 246.03 257 246.02 246.02 287 322 308 243 238.14 238.14 245 291 265 324
402 431 517 563 573 684 592 528 611 611 526 567 586 614 566 567 561 491 447 395.02 398 417 448 616 630 704 718 669 578 476 545 540 435 365 341.1 344 355 390 426 464 522 664 765 697 577 529 514.01 561 635 666 707 590 528 516 483 544 480 400 336.02 336.01 336 371 358 385 348 337 371 368 316.01 319 368 446 372 330 314 285 284.03 284.02 284.01 284 282 278.14 278.14 304 348 326 278.1 278.1 278.1 307 302 286.01 313 340 361 394 338 343 292 290 266.01 294 325 282 281 292 336 359 342 336 334 278.03 278.02 278.02 322 301 286 296 313 304.01 318 345 378 356 278 310 271.01 271 265 274 252 247 279 249 230.14 235 270 254 267 234.01 238 264 230.06 270 277 333 385 338 267 267 300 309 403 530 418 345 266 253 241 270 289 232 234 216.19 216.18 216.17 216.16 216.15 216.14 216.13 216.12 216.11 216.11 222 228 216.11 320 394 377 411 357 357 358 351 356 371 419 462 406 345 292 262 276 250.04 250.04 275 369 344 421 428 441 467 381 374 436 477 434 468 522 499 485 466 548 650 788 709 811 784 846 736 625 548 507 503.01 518 486 503 519 482 425 400 391 426 494 601 648 541 480 478 432 480 479 440 388 359 371 401 423 372 298 323 341 347 352 278 293 280 289 230.24 230.23 230.23 246 290 315 344 374 441 393 378 326 303 263 242 265 270 241 238 211.18 215 212.01 241 236.01 244 267 272 262 277 316 342 393 371 324 267 285 298 255 229.15 229.15 229.15 229.16 247 256 278 267 271 251 292 276 279 284 308 279 262 268 251 250.01 277 344 369 431 440 504 491 474 469 423 488 584 707 758 742 683 579 589 692 742 731 788 821 864 892 963 1060 1112 1194 1210 1217 1113 1023 1006 996 878 873 852 982 765 689 642 581 505 486 465.01 474 536 554 505 558 417 360.01 360 347.04 355 394 441 415 379 294 294 281 277 263 261.01 266 274 250.02 267 246.03 246.02 246.01 270 286 312 250 238.13 238.13 238.13 256 238.13 277 324
443 405 458 537 587 657 692 577 658 684 618 718 713 751 721 664 607 523 518 410 432 477 481 585 565 600 636 641 536 472 565 523 437 362 341.11 354 393 458 498 539 596 701 639 611 555 514 516 547 535 595 668 667 699 675 537 434 414 372 429 381 347 316.08 316.07 335 333 334 316.03 316.02 329 399 381 464 372 366 311 299 284.03 284.02 295 289 316 319 330 310 375 324 286 299 283 327 311 325 292 295 337 335 322 295 283 281 266.02 266.02 288 296 281.01 306 293 310 354 322 298 303 338 290 315 300 290 339 380 304.02 347 320 333 319 293 275 330 307 340 315 274 301 276 260 230.14 230.13 236 258 264 234 241 230.07 230.07 283 289 277.01 298 265 260 285 310 290 319 365 411 328 341 245 223 218.02 218.01 218 218 216.19 216.18 216.17 216.16 216.15 216.14 216.13 216.12 216.11 216.1 216.1 243 216.1 269 403 465 662 589 466 339.01 339 304.01 318 365 397 379 368 339 338 257 250.03 292 288 378 435 430 396 437 410 335.02 431 415 446 532 586 483 425 440 496 544 733 696 576 595 731 778 685 545 531 514 510 503 453.04 453.04 482 418 391 378.05 430 420 444 554 596 550 443 417 407 409 417 453 455 415 423 404 455 384 324 354 359 353 320 287 266 267 242 239 241 230.22 263 271 282 303 375 395 403 374 291 263.01 274 274 283 256 250 250 211.17 212 246 255 260 256 244.01 246 246.01 305 308 366 373 350 355 285 248.01 248 241 229.14 229.14 230 241 248 275 310 283 264 262 251.01 251.02 297 281 279 261 279 284 269 269 290 281 290 321 321.01 321.02 324 340 426 393 439 534 622 604 685 675 678 634 685 692 764 849 930 931 934 981 1033 1084 1175 1304 1250 1168 1061 1021 1016 1091 984 917 958 817 737 669 607 580 555 525 465 439 438 477 420 387 363 429 380 419 435 481 426 385 307 270.03 272 276 270 261.01 261 267 250.01 287 246.03 274 273 246 256 277 304 275 238.12 238.12 238.12 282 299 307
501 405.01 471 484 595 623 760 719 710 816 797 752 810 790 763 703 579 565 427 477 538 462 526 476 481 491 559 634 523 433 538 481 422 341.12 341.12 387 436 504 543 661 671 669 590 544 553 547 486 480 505 574 672 716 641 575 521 459 387 372.01 409 406 386 368 316.07 316.06 316.05 316.04 316.03 316.03 362 434 460 451 390 380 333 323 305 287 315 302 332 338 334 360 356 297 313 314 289 344 332 319 314 317 308 312 308 298 303 289 266.03 280 297 288 299 281.02 321 307 367 330 300 304 318 372 334 301 290.01 333 358 331 336 323 288 287 275.01 287 287 293 315 334 284 282 275 269 265 230.13 230.12 230.11 230.1 230.09 230.08 247 235 230.08 310 285 283 248 261 308 273 280 248.04 307 385 421 367 297 249 251 226 220 216.2 216.19 216.18 216.17 216.16 216.15 216.14 216.13 216.12 216.11 216.1 216.09 216.09 216.09 249 341 421 523 519 476 404 342 304 343 381 382 336 306 302 304 269 250.02 269 340 345 415 374 371 347 335.01 401 464 472 502 532 539 475 417 416 457 584 650 589 531.01 665 658 742 718 587 626 553 618 502 453.03 453.03 554 478 427 378.04 394 439 506 542 536 481 449 416 388 397 491 518 490 526 493 474 436 343 376 386 383 418 377 317 260 255 230.22 230.21 242 230.21 230.21 277 266 325 382 364 396 291 276 306 343 305 279 268 222 221 211.16 236 241 246 246.01 282 290 263 265 286 334 364 398 318 265 277 248 268 237 229.13 230 232 234 256 270 288 273 269 294 251.02 268 255 278 256 266 267 265.01 268 332 330 281.01 281.01 331 423 401 391 408 357 357.01 394 459 531 635 619 636 701 761 742 747 799 859 926 907 839 1007 1022 1056 1121 1228 1164 1153 1129 1102 1113 1159 1061 973 951 896 745 668 595 591 563 537 521 461 454 434 418 447 415 493 410 469 512 474 397 405 299 294 270.02 270.01 283 273 274 256 298 250 246.04 288 240.04 240.03 240.02 267 261 238.13 238.12 238.11 255 273 288 261
